ply
format ascii 1.0
comment PCL generated
element vertex 1190
property float x
property float y
property float z
property uchar red
property uchar green
property uchar blue
element camera 0
property float view_px
property float view_py
property float view_pz
property float x_axisx
property float x_axisy
property float x_axisz
property float y_axisx
property float y_axisy
property float y_axisz
property float z_axisx
property float z_axisy
property float z_axisz
property float focal
property float scalex
property float scaley
property float centerx
property float centery
property int viewportx
property int viewporty
property float k1
property float k2
end_header
4.0108728 2.5839853 9.6690807 160 161 195
4.0168681 2.5839853 9.6690807 169 168 214
4.0228634 2.5839853 9.6690807 181 180 226
4.0288587 2.5839853 9.6690807 184 177 217
4.0348539 2.5839853 9.6690807 185 178 218
4.0408492 2.5839853 9.6690807 184 177 215
4.0468445 2.5839853 9.6690807 184 177 215
4.0528398 2.5839853 9.6690807 175 169 205
4.0588355 2.5839853 9.6690807 189 183 219
4.0648303 2.5839853 9.6690807 172 166 200
4.0708256 2.5839853 9.6690807 174 168 202
4.0768213 2.5839853 9.6690807 145 139 173
4.0828166 2.5839853 9.6690807 156 150 184
4.0888119 2.5839853 9.6690807 120 114 150
4.0948071 2.5839853 9.6690807 147 141 177
4.1008024 2.5839853 9.6690807 97 90 128
4.1067977 2.5839853 9.6690807 124 117 155
4.112793 2.5839853 9.6690807 89 82 122
4.1187887 2.5839853 9.6690807 100 93 133
4.124784 2.5839853 9.6690807 86 82 101
4.1307793 2.5839853 9.6690807 84 80 99
4.1367745 2.5839853 9.6690807 80 76 95
4.1427698 2.5839853 9.6690807 77 73 92
4.1487651 2.5839853 9.6690807 75 71 90
3.69312 2.2968755 8.594738 74 70 89
4.1607556 2.5839853 9.6690807 74 70 89
4.1667509 2.5839853 9.6690807 74 70 89
4.1727462 2.5839853 9.6690807 72 68 87
4.1787415 2.5839853 9.6690807 72 68 87
4.1847372 2.5839853 9.6690807 72 68 87
4.1907325 2.5839853 9.6690807 72 68 87
4.1967278 2.5839853 9.6690807 72 68 87
4.202723 2.5839853 9.6690807 72 68 87
4.2087183 2.5839853 9.6690807 72 68 87
4.2147136 2.5839853 9.6690807 72 68 87
4.2207088 2.5839853 9.6690807 70 66 87
3.7570705 2.2968755 8.594738 67 63 84
4.2326999 2.5839853 9.6690807 66 62 83
4.2386951 2.5839853 9.6690807 67 63 84
4.2446904 2.5839853 9.6690807 70 66 87
4.2506857 2.5839853 9.6690807 71 67 88
4.256681 2.5839853 9.6690807 69 65 86
4.2626762 2.5839853 9.6690807 67 63 84
4.2686715 2.5839853 9.6690807 68 64 85
4.7496295 2.8710945 10.743423 68 64 85
4.7562914 2.8710945 10.743423 68 64 85
4.7629523 2.8710945 10.743423 68 64 85
4.2926531 2.5839853 9.6690807 68 64 85
4.7762756 2.8710945 10.743423 68 64 85
4.3046436 2.5839853 9.6690807 68 64 85
4.3106389 2.5839853 9.6690807 68 64 85
5.1319985 2.5839853 9.6690807 64 60 79
5.1379938 2.5839853 9.6690807 66 62 81
5.1439891 2.5839853 9.6690807 61 57 76
5.1499844 2.5839853 9.6690807 67 63 82
5.1559796 2.5839853 9.6690807 58 56 75
5.1619749 2.5839853 9.6690807 63 61 80
5.1679707 2.5839853 9.6690807 59 58 75
5.1739659 2.5839853 9.6690807 61 60 77
5.1799612 2.5839853 9.6690807 63 55 76
5.1859565 2.5839853 9.6690807 66 58 79
5.1919518 2.5839853 9.6690807 62 54 75
5.197947 2.5839853 9.6690807 68 60 81
5.2039423 2.5839853 9.6690807 62 54 75
5.209938 2.5839853 9.6690807 65 57 78
5.2159333 2.5839853 9.6690807 59 53 73
5.2219286 2.5839853 9.6690807 60 54 74
5.2279239 2.5839853 9.6690807 60 54 76
5.2339191 2.5839853 9.6690807 65 59 81
5.2399139 2.5839853 9.6690807 58 52 74
5.2459092 2.5839853 9.6690807 64 58 80
5.2519045 2.5839853 9.6690807 56 50 74
5.2579007 2.5839853 9.6690807 61 55 79
5.2638955 2.5839853 9.6690807 61 55 79
5.2698908 2.5839853 9.6690807 64 58 82
4.6896768 2.2968755 8.594738 60 55 73
4.6950059 2.2968755 8.594738 66 61 79
4.700335 2.2968755 8.594738 53 49 70
4.7056642 2.2968755 8.594738 64 60 81
4.7109933 2.2968755 8.594738 50 48 71
4.7163224 2.2968755 8.594738 58 56 79
4.7216516 2.2968755 8.594738 59 53 75
4.7269807 2.2968755 8.594738 63 57 79
4.7323098 2.2968755 8.594738 70 59 81
4.737639 2.2968755 8.594738 63 52 74
4.7429681 2.2968755 8.594738 69 61 82
4.7482972 2.2968755 8.594738 56 48 69
4.7536268 2.2968755 8.594738 61 58 84
4.758956 2.2968755 8.594738 55 52 78
4.7642851 2.2968755 8.594738 54 59 90
4.7696142 2.2968755 8.594738 53 58 89
4.7749434 2.2968755 8.594738 61 61 81
4.7802725 2.2968755 8.594738 61 61 81
4.7856016 2.2968755 8.594738 59 61 85
4.7909307 2.2968755 8.594738 61 63 87
4.7962599 2.2968755 8.594738 63 66 92
4.801589 2.2968755 8.594738 67 70 96
4.8069181 2.2968755 8.594738 73 72 97
4.8122473 2.2968755 8.594738 75 74 99
4.4243054 2.1093757 7.893127 82 78 99
4.4291992 2.1093757 7.893127 83 79 100
4.4340935 2.1093757 7.893127 87 79 100
4.4389877 2.1093757 7.893127 91 83 104
4.443882 2.1093757 7.893127 95 89 111
4.8442225 2.2968755 8.594738 100 94 116
4.45367 2.1093757 7.893127 105 101 124
4.4585643 2.1093757 7.893127 108 104 127
4.4634585 2.1093757 7.893127 110 111 147
4.8655391 2.2968755 8.594738 110 111 147
4.4732466 2.1093757 7.893127 117 122 155
4.4781408 2.1093757 7.893127 117 122 155
4.4830351 2.1093757 7.893127 128 135 165
4.8868561 2.2968755 8.594738 128 135 165
4.4928231 2.1093757 7.893127 141 143 170
4.4977174 2.1093757 7.893127 141 143 170
4.5026116 2.1093757 7.893127 148 141 168
4.5075054 2.1093757 7.893127 147 140 167
4.5123997 2.1093757 7.893127 157 145 169
4.5172939 2.1093757 7.893127 153 141 165
4.5221882 2.1093757 7.893127 159 148 170
4.5270824 2.1093757 7.893127 153 142 164
4.5319762 2.1093757 7.893127 155 148 167
4.5368705 2.1093757 7.893127 152 145 164
4.5417647 2.1093757 7.893127 143 143 181
4.546659 2.1093757 7.893127 141 141 179
4.5515528 2.1093757 7.893127 141 138 175
4.556447 2.1093757 7.893127 138 135 172
4.5613413 2.1093757 7.893127 134 132 167
4.5662355 2.1093757 7.893127 131 129 164
4.5711298 2.1093757 7.893127 131 125 157
4.5760236 2.1093757 7.893127 130 124 156
4.5809178 2.1093757 7.893127 119 112 141
4.5858121 2.1093757 7.893127 117 110 139
4.5907059 2.1093757 7.893127 114 105 133
4.5956001 2.1093757 7.893127 109 100 128
4.6004944 2.1093757 7.893127 106 95 121
4.6053886 2.1093757 7.893127 102 91 117
4.6102829 2.1093757 7.893127 98 87 111
4.6151767 2.1093757 7.893127 96 85 109
4.6200709 2.1093757 7.893127 70 69 96
4.6249652 2.1093757 7.893127 70 69 96
4.629859 2.1093757 7.893127 70 67 95
4.6347532 2.1093757 7.893127 68 65 93
4.2894855 1.9501773 7.2974191 67 64 90
4.2940102 1.9501773 7.2974191 66 63 89
4.2985349 1.9501773 7.2974191 67 63 86
4.3030596 1.9501773 7.2974191 66 62 85
4.3075843 1.9501773 7.2974191 64 60 79
4.3121095 1.9501773 7.2974191 64 60 79
4.3166342 1.9501773 7.2974191 64 59 77
4.3211589 1.9501773 7.2974191 64 59 77
4.3256836 1.9501773 7.2974191 63 58 74
4.6836948 2.1093757 7.893127 62 57 73
4.6885891 2.1093757 7.893127 62 57 73
4.6934834 2.1093757 7.893127 61 56 72
0.83934551 5.1799612 19.338161 241 233 255
0.85133624 5.1799612 19.338161 231 223 246
0.71943897 4.3166342 16.115133 235 232 249
0.6252268 3.6999722 13.812972 237 234 251
0.55456758 3.2374754 12.08635 237 235 255
0.56206173 3.2374754 12.08635 236 234 255
0.5062719 2.8777561 10.743423 236 233 250
0.57705003 3.2374754 12.08635 235 232 249
0.35293233 1.9547023 7.2974191 238 230 253
0.3574571 1.9547023 7.2974191 241 233 255
0.33657965 1.8175302 6.7853193 232 232 254
0.31844023 1.6983478 6.3403807 235 235 255
0.32237157 1.6983478 6.3403807 231 231 253
0.28847069 1.5014378 5.6052637 234 234 255
0.29194626 1.5014378 5.6052637 234 234 255
0.29542181 1.5014378 5.6052637 231 231 253
0.25461629 1.2790028 4.7748547 235 235 255
0.24545567 1.2188144 4.5501556 232 232 254
0.23711847 1.1640362 4.345654 235 235 255
0.239813 1.1640362 4.345654 231 231 253
0.22250691 1.0680331 3.9872496 235 235 255
0.22497921 1.0680331 3.9872496 235 235 255
0.21012186 0.98665917 3.683459 234 234 255
0.20461109 0.95045155 3.5482864 233 233 255
0.19949047 0.91680717 3.4226832 229 229 251
0.19471996 0.88546342 3.3056686 232 232 254
0.19676964 0.88546342 3.3056686 231 228 254
0.19881932 0.88546342 3.3056686 233 230 255
0.20086902 0.88546342 3.3056686 235 233 255
0.20291871 0.88546342 3.3056686 236 234 255
0.20496839 0.88546342 3.3056686 236 234 255
0.20701806 0.88546342 3.3056686 233 231 252
0.54357612 2.3022048 8.594738 229 229 247
0.30494741 1.2790028 4.7748547 227 227 245
0.30790806 1.2790028 4.7748547 231 231 251
0.32701772 1.3454443 5.0228987 232 232 252
0.31382936 1.2790028 4.7748547 234 236 255
0.33324662 1.3454443 5.0228987 227 229 253
0.21602988 0.85619187 3.1963902 223 224 254
0.21801181 0.85619187 3.1963902 224 225 255
0.21999374 0.85619187 3.1963902 229 230 255
0.22197567 0.85619187 3.1963902 229 228 253
0.22395758 0.85619187 3.1963902 232 231 255
0.22593953 0.85619187 3.1963902 230 229 254
0.22792144 0.85619187 3.1963902 233 232 255
0.22990337 0.85619187 3.1963902 233 232 255
0.2318853 0.85619187 3.1963902 230 229 254
0.62884295 2.3022048 8.594738 232 231 255
0.582403 2.1142697 7.893127 229 228 253
0.58729714 2.1142697 7.893127 229 228 253
0.54749763 1.9547023 7.2974191 229 228 253
0.51328397 1.8175302 6.7853193 229 228 253
0.51749122 1.8175302 6.7853193 229 228 253
0.43096825 1.5014378 5.6052637 229 228 253
0.41063869 1.4191674 5.2981262 229 228 253
0.39242128 1.3454443 5.0228987 229 228 253
0.37600312 1.2790028 4.7748547 229 228 253
0.37896377 1.2790028 4.7748547 226 223 249
0.36395153 1.2188144 4.5501556 231 228 254
0.36677286 1.2188144 4.5501556 233 230 255
0.29919526 0.98665917 3.683459 230 227 253
0.30147919 0.98665917 3.683459 230 227 253
0.30376312 0.98665917 3.683459 233 230 255
0.29481599 0.95045155 3.5482864 231 228 254
0.28650224 0.91680717 3.4226832 226 223 249
0.2886245 0.91680717 3.4226832 235 232 255
0.29074672 0.91680717 3.4226832 231 228 254
0.29286897 0.91680717 3.4226832 230 227 253
0.2949912 0.91680717 3.4226832 231 228 254
0.29711345 0.91680717 3.4226832 232 229 255
0.29923567 0.91680717 3.4226832 230 227 253
0.30135792 0.91680717 3.4226832 232 229 255
0.30348015 0.91680717 3.4226832 235 232 255
0.3056024 0.91680717 3.4226832 226 225 253
0.30772462 0.91680717 3.4226832 225 224 252
0.30984688 0.91680717 3.4226832 226 221 247
0.3119691 0.91680717 3.4226832 226 221 247
0.32561764 0.95045155 3.5482864 225 226 255
0.3278178 0.95045155 3.5482864 227 228 255
0.33001789 0.95045155 3.5482864 215 218 255
0.33221802 0.95045155 3.5482864 204 207 249
0.33441815 0.95045155 3.5482864 207 203 248
0.33661824 0.95045155 3.5482864 216 212 255
0.33881837 0.95045155 3.5482864 226 224 255
0.34101847 0.95045155 3.5482864 229 227 255
0.34321862 0.95045155 3.5482864 225 226 255
0.34541875 0.95045155 3.5482864 222 223 253
0.34761885 0.95045155 3.5482864 228 222 255
0.34981897 0.95045155 3.5482864 230 224 255
0.3520191 0.95045155 3.5482864 229 223 255
0.36771327 0.98665917 3.683459 230 224 255
0.36999717 0.98665917 3.683459 231 225 255
0.3722811 0.98665917 3.683459 229 223 255
0.37456506 0.98665917 3.683459 224 221 250
0.376849 0.98665917 3.683459 222 219 248
0.39414811 1.0257349 3.8293388 222 221 249
0.39652249 1.0257349 3.8293388 224 223 251
0.39889687 1.0257349 3.8293388 226 226 248
0.40127128 1.0257349 3.8293388 226 226 248
0.40364566 1.0257349 3.8293388 228 231 250
0.40602005 1.0257349 3.8293388 223 226 245
0.40839443 1.0257349 3.8293388 223 226 253
0.41076881 1.0257349 3.8293388 219 222 249
0.41314319 1.0257349 3.8293388 224 225 255
0.41551757 1.0257349 3.8293388 225 226 255
0.41789195 1.0257349 3.8293388 223 223 255
0.42026636 1.0257349 3.8293388 221 221 255
0.42264074 1.0257349 3.8293388 216 216 255
0.42501512 1.0257349 3.8293388 212 212 255
0.42738953 1.0257349 3.8293388 208 207 255
0.42976388 1.0257349 3.8293388 203 202 251
0.43213826 1.0257349 3.8293388 195 196 250
0.43451265 1.0257349 3.8293388 190 191 245
0.42024371 0.98665917 3.683459 175 176 234
0.40702206 0.95045155 3.5482864 168 169 227
0.40922219 0.95045155 3.5482864 161 163 224
0.41142231 0.95045155 3.5482864 161 163 224
0.42937946 0.98665917 3.683459 159 161 222
0.43166339 0.98665917 3.683459 151 153 214
0.43394732 0.98665917 3.683459 139 141 205
0.45350775 1.0257349 3.8293388 132 134 198
0.56844562 1.2790028 4.7748547 125 136 193
1.7557737 3.6999722 13.812972 46 42 63
1.7643385 3.6999722 13.812972 47 44 61
1.7729032 3.6999722 13.812972 41 38 55
1.781468 3.6999722 13.812972 47 42 60
1.5662787 3.2374754 12.08635 47 42 60
1.7985976 3.6999722 13.812972 47 43 54
1.8071623 3.6999722 13.812972 47 43 54
1.815727 3.6999722 13.812972 47 43 53
1.8242918 3.6999722 13.812972 47 43 53
1.8328565 3.6999722 13.812972 47 42 60
1.8414214 3.6999722 13.812972 47 42 60
2.1316712 2.3022048 8.594738 58 54 65
2.1370003 2.3022048 8.594738 56 52 63
2.1423295 2.3022048 8.594738 54 50 61
2.1476586 2.3022048 8.594738 56 52 63
2.1529877 2.3022048 8.594738 58 54 65
2.1583171 2.3022048 8.594738 55 51 62
2.4341021 2.5899806 9.6690807 47 43 54
2.4400973 2.5899806 9.6690807 40 36 47
2.1743045 2.3022048 8.594738 20 16 27
2.1796336 2.3022048 8.594738 18 14 25
2.1849627 2.3022048 8.594738 16 12 23
2.1902921 2.3022048 8.594738 14 10 21
2.1956213 2.3022048 8.594738 12 8 19
2.2009504 2.3022048 8.594738 11 7 18
2.2062795 2.3022048 8.594738 11 7 18
2.2116086 2.3022048 8.594738 11 7 18
2.216938 2.3022048 8.594738 11 7 15
2.5000505 2.5899806 9.6690807 11 7 15
2.5060461 2.5899806 9.6690807 11 7 15
2.2329254 2.3022048 8.594738 11 7 15
2.2382548 2.3022048 8.594738 10 6 14
2.2121527 2.1142697 7.893127 7 5 12
2.2170467 2.1142697 7.893127 5 3 10
2.221941 2.1142697 7.893127 3 1 8
2.4247758 2.3022048 8.594738 1 0 6
2.430105 2.3022048 8.594738 3 1 8
2.2366233 2.1142697 7.893127 5 3 10
2.2415175 2.1142697 7.893127 7 5 12
2.2464116 2.1142697 7.893127 6 4 11
2.2513058 2.1142697 7.893127 5 3 10
2.2561998 2.1142697 7.893127 6 4 11
2.2610941 2.1142697 7.893127 10 8 15
2.2659881 2.1142697 7.893127 13 11 18
2.2708824 2.1142697 7.893127 6 5 18
2.2757764 2.1142697 7.893127 7 6 19
2.2806706 2.1142697 7.893127 9 8 21
2.2855649 2.1142697 7.893127 11 10 23
2.2904589 2.1142697 7.893127 13 12 25
2.2953529 2.1142697 7.893127 15 14 27
2.3002472 2.1142697 7.893127 17 16 29
2.3051414 2.1142697 7.893127 17 16 29
2.3100355 2.1142697 7.893127 8 7 20
2.3149295 2.1142697 7.893127 8 7 20
2.3198237 2.1142697 7.893127 8 7 20
2.324718 2.1142697 7.893127 10 9 22
2.5366886 2.3022048 8.594738 11 10 23
2.334506 2.1142697 7.893127 11 10 23
2.3394003 2.1142697 7.893127 8 7 20
2.3442945 2.1142697 7.893127 5 4 17
2.3491886 2.1142697 7.893127 9 10 14
2.3540828 2.1142697 7.893127 8 9 13
2.3589771 2.1142697 7.893127 7 8 12
2.3709815 1.9547023 7.2974191 24 23 36
2.2088039 1.8175302 6.7853193 26 25 38
2.213011 1.8175302 6.7853193 27 26 39
2.2172184 1.8175302 6.7853193 28 27 40
2.2214258 1.8175302 6.7853193 35 29 40
2.2256329 1.8175302 6.7853193 35 29 40
2.22984 1.8175302 6.7853193 37 31 42
2.2340474 1.8175302 6.7853193 39 33 44
2.0914838 1.6983478 6.3403807 41 35 46
2.2424619 1.8175302 6.7853193 43 37 48
2.0993466 1.6983478 6.3403807 44 38 49
2.2508762 1.8175302 6.7853193 45 39 50
2.4252787 1.9547023 7.2974191 46 40 51
2.628155 2.1142697 7.893127 47 41 52
2.8670979 2.3022048 8.594738 48 42 53
2.872427 2.3022048 8.594738 50 44 55
2.8777561 2.3022048 8.594738 52 46 57
2.8830853 2.3022048 8.594738 54 48 59
2.8884144 2.3022048 8.594738 56 50 61
2.8937435 2.3022048 8.594738 56 50 61
2.8990729 2.3022048 8.594738 52 51 68
2.904402 2.3022048 8.594738 53 52 69
2.9097311 2.3022048 8.594738 53 52 69
2.9150603 2.3022048 8.594738 54 53 70
2.9203894 2.3022048 8.594738 56 53 70
2.9257185 2.3022048 8.594738 57 54 71
2.9310479 2.3022048 8.594738 58 55 72
2.936377 2.3022048 8.594738 58 55 72
2.9417062 2.3022048 8.594738 63 58 76
2.9470353 2.3022048 8.594738 60 55 73
2.9523644 2.3022048 8.594738 54 49 67
2.9576936 2.3022048 8.594738 45 40 58
2.9630227 2.3022048 8.594738 34 29 47
3.339396 2.5899806 9.6690807 22 17 35
3.3453915 2.5899806 9.6690807 12 7 25
3.3513868 2.5899806 9.6690807 6 1 19
2.9843395 2.3022048 8.594738 8 4 12
2.9896686 2.3022048 8.594738 8 4 12
2.9949977 2.3022048 8.594738 7 3 13
3.0003271 2.3022048 8.594738 7 3 13
3.0056562 2.3022048 8.594738 8 4 14
3.3873589 2.5899806 9.6690807 9 5 15
3.0163145 2.3022048 8.594738 11 7 18
3.0216436 2.3022048 8.594738 12 8 19
3.0269728 2.3022048 8.594738 6 2 13
3.0323021 2.3022048 8.594738 6 2 13
3.0376313 2.3022048 8.594738 7 2 16
3.0429604 2.3022048 8.594738 8 3 17
3.0482895 2.3022048 8.594738 10 5 19
3.0536187 2.3022048 8.594738 13 8 22
3.0589478 2.3022048 8.594738 16 11 25
3.0642772 2.3022048 8.594738 17 12 26
3.0696065 2.3022048 8.594738 32 27 43
3.0749357 2.3022048 8.594738 41 36 52
3.0802648 2.3022048 8.594738 46 41 55
3.0855939 2.3022048 8.594738 57 52 66
3.0909233 2.3022048 8.594738 53 48 62
3.0962524 2.3022048 8.594738 57 52 66
3.1015816 2.3022048 8.594738 51 47 58
3.1069107 2.3022048 8.594738 52 48 59
3.1122398 2.3022048 8.594738 32 28 39
3.117569 2.3022048 8.594738 23 19 30
3.1228983 2.3022048 8.594738 13 9 19
3.1282275 2.3022048 8.594738 8 4 14
3.1335566 2.3022048 8.594738 11 7 17
3.1388857 2.3022048 8.594738 13 9 19
3.1442149 2.3022048 8.594738 13 9 17
3.149544 2.3022048 8.594738 10 6 14
3.1548734 2.3022048 8.594738 5 5 15
3.1602025 2.3022048 8.594738 6 6 16
3.1655316 2.3022048 8.594738 6 6 16
3.1708608 2.3022048 8.594738 7 7 17
3.1761899 2.3022048 8.594738 9 9 19
3.181519 2.3022048 8.594738 10 10 20
3.1868484 2.3022048 8.594738 10 10 20
3.1921775 2.3022048 8.594738 11 11 21
3.1975067 2.3022048 8.594738 15 15 25
3.2028358 2.3022048 8.594738 13 13 23
3.2081649 2.3022048 8.594738 11 11 21
3.2134941 2.3022048 8.594738 10 10 20
3.2188234 2.3022048 8.594738 9 9 19
3.2241526 2.3022048 8.594738 10 10 20
3.2294817 2.3022048 8.594738 12 12 22
3.2348108 2.3022048 8.594738 13 13 23
3.24014 2.3022048 8.594738 27 25 44
3.2454691 2.3022048 8.594738 35 33 52
3.7171016 2.5899806 9.6690807 58 56 75
3.8010364 2.5899806 9.6690807 62 58 81
3.8070314 2.5899806 9.6690807 63 59 82
3.8130267 2.5899806 9.6690807 63 59 82
3.8190222 2.5899806 9.6690807 64 60 83
3.8250175 2.5899806 9.6690807 64 60 83
4.2566805 2.8777561 10.743423 64 60 83
4.2633424 2.8777561 10.743423 65 61 82
4.2700038 2.8777561 10.743423 65 61 82
4.2766652 2.8777561 10.743423 65 61 80
4.2833266 2.8777561 10.743423 65 61 80
4.289988 2.8777561 10.743423 65 62 79
3.8669848 2.5899806 9.6690807 65 62 79
3.8729801 2.5899806 9.6690807 65 62 79
3.8789754 2.5899806 9.6690807 65 62 79
3.8849709 2.5899806 9.6690807 66 62 83
4.3232956 2.8777561 10.743423 66 62 83
4.329957 2.8777561 10.743423 66 62 83
4.3366184 2.8777561 10.743423 67 63 84
4.3432798 2.8777561 10.743423 67 63 82
3.9149473 2.5899806 9.6690807 68 64 83
3.9209425 2.5899806 9.6690807 68 65 82
3.9269381 2.5899806 9.6690807 68 65 82
3.9329333 2.5899806 9.6690807 61 59 78
3.9389286 2.5899806 9.6690807 62 60 79
3.9449239 2.5899806 9.6690807 63 61 82
3.9509194 2.5899806 9.6690807 64 62 83
3.9569147 2.5899806 9.6690807 65 63 84
3.9629099 2.5899806 9.6690807 67 65 86
3.9689054 2.5899806 9.6690807 68 66 89
3.9749007 2.5899806 9.6690807 68 66 89
3.980896 2.5899806 9.6690807 74 71 99
3.9868913 2.5899806 9.6690807 96 93 121
3.9928868 2.5899806 9.6690807 80 77 106
3.9988821 2.5899806 9.6690807 119 116 145
4.0048771 2.5899806 9.6690807 94 91 120
4.0108728 2.5899806 9.6690807 143 140 169
4.0168681 2.5899806 9.6690807 135 131 163
4.0228634 2.5899806 9.6690807 158 154 186
4.0288587 2.5899806 9.6690807 166 161 189
4.0348539 2.5899806 9.6690807 170 165 193
4.0408492 2.5899806 9.6690807 174 171 208
4.0468445 2.5899806 9.6690807 173 170 207
4.0528398 2.5899806 9.6690807 168 172 219
4.0588355 2.5899806 9.6690807 178 182 229
4.0648303 2.5899806 9.6690807 174 182 232
4.0708256 2.5899806 9.6690807 177 185 235
4.0768213 2.5899806 9.6690807 179 188 231
4.0828166 2.5899806 9.6690807 166 175 218
4.0888119 2.5899806 9.6690807 176 177 215
4.0948071 2.5899806 9.6690807 168 169 207
4.1008024 2.5899806 9.6690807 186 180 216
4.1067977 2.5899806 9.6690807 157 151 187
4.112793 2.5899806 9.6690807 178 165 204
4.1187887 2.5899806 9.6690807 144 131 170
4.124784 2.5899806 9.6690807 151 150 177
4.1307793 2.5899806 9.6690807 112 111 138
4.1367745 2.5899806 9.6690807 121 120 164
4.1427698 2.5899806 9.6690807 88 87 131
4.1487651 2.5899806 9.6690807 84 82 133
4.1547604 2.5899806 9.6690807 80 78 129
4.1607556 2.5899806 9.6690807 77 78 112
4.1667509 2.5899806 9.6690807 80 81 115
4.1727462 2.5899806 9.6690807 80 80 102
4.1787415 2.5899806 9.6690807 72 72 94
4.1847372 2.5899806 9.6690807 79 74 100
4.1907325 2.5899806 9.6690807 70 65 91
4.1967278 2.5899806 9.6690807 86 77 105
4.202723 2.5899806 9.6690807 79 70 98
4.2087183 2.5899806 9.6690807 88 77 97
4.2147136 2.5899806 9.6690807 81 70 90
4.2207088 2.5899806 9.6690807 77 71 91
4.2267046 2.5899806 9.6690807 76 70 90
3.7623997 2.3022048 8.594738 73 68 94
3.7677288 2.3022048 8.594738 69 64 90
4.2446904 2.5899806 9.6690807 70 67 93
4.2506857 2.5899806 9.6690807 73 70 96
3.7837162 2.3022048 8.594738 71 71 89
3.7890456 2.3022048 8.594738 66 66 84
3.7943747 2.3022048 8.594738 69 69 87
4.2746668 2.5899806 9.6690807 67 67 85
4.2806621 2.5899806 9.6690807 64 63 88
4.2866573 2.5899806 9.6690807 63 62 87
4.2926531 2.5899806 9.6690807 64 64 86
4.2986484 2.5899806 9.6690807 63 63 85
4.3046436 2.5899806 9.6690807 63 62 77
4.3106389 2.5899806 9.6690807 61 60 75
4.3166342 2.5899806 9.6690807 73 58 85
3.8423371 2.3022048 8.594738 71 56 83
4.3286247 2.5899806 9.6690807 66 55 81
5.1739659 2.5899806 9.6690807 62 56 76
5.1799612 2.5899806 9.6690807 58 54 73
5.1859565 2.5899806 9.6690807 58 54 73
5.1919518 2.5899806 9.6690807 58 54 73
5.197947 2.5899806 9.6690807 58 54 73
5.2039423 2.5899806 9.6690807 58 54 73
5.209938 2.5899806 9.6690807 58 54 73
5.2159333 2.5899806 9.6690807 58 54 73
5.2219286 2.5899806 9.6690807 58 54 73
5.2279239 2.5899806 9.6690807 58 54 73
5.2339191 2.5899806 9.6690807 58 54 73
5.2399139 2.5899806 9.6690807 58 54 73
5.2459092 2.5899806 9.6690807 58 54 73
5.2519045 2.5899806 9.6690807 58 54 73
5.2579007 2.5899806 9.6690807 58 54 73
5.2638955 2.5899806 9.6690807 58 54 73
5.2698908 2.5899806 9.6690807 58 54 73
4.6896768 2.3022048 8.594738 59 55 78
4.6950059 2.3022048 8.594738 58 54 77
4.700335 2.3022048 8.594738 57 53 76
4.7056642 2.3022048 8.594738 57 53 76
4.7109933 2.3022048 8.594738 57 53 76
4.7163224 2.3022048 8.594738 57 53 76
4.7216516 2.3022048 8.594738 58 54 75
4.7269807 2.3022048 8.594738 59 55 76
4.7323098 2.3022048 8.594738 58 54 75
4.737639 2.3022048 8.594738 58 54 75
4.7429681 2.3022048 8.594738 58 54 73
4.7482972 2.3022048 8.594738 58 54 73
4.7536268 2.3022048 8.594738 58 54 73
4.758956 2.3022048 8.594738 58 54 73
4.7642851 2.3022048 8.594738 58 54 73
4.7696142 2.3022048 8.594738 58 54 73
4.7749434 2.3022048 8.594738 60 56 77
4.7802725 2.3022048 8.594738 59 55 76
4.7856016 2.3022048 8.594738 58 54 75
4.7909307 2.3022048 8.594738 59 55 76
4.7962599 2.3022048 8.594738 61 57 78
4.801589 2.3022048 8.594738 62 58 79
4.8069181 2.3022048 8.594738 61 57 78
4.8122473 2.3022048 8.594738 60 56 77
4.4243054 2.1142697 7.893127 62 58 79
4.4291992 2.1142697 7.893127 62 58 79
4.4340935 2.1142697 7.893127 62 58 79
4.4389877 2.1142697 7.893127 63 59 80
4.443882 2.1142697 7.893127 64 60 81
4.8442225 2.3022048 8.594738 64 60 81
4.45367 2.1142697 7.893127 65 61 82
4.4585643 2.1142697 7.893127 65 61 82
4.4634585 2.1142697 7.893127 68 75 95
4.4683523 2.1142697 7.893127 72 79 99
4.4732466 2.1142697 7.893127 82 82 102
4.4781408 2.1142697 7.893127 88 88 108
4.4830351 2.1142697 7.893127 98 91 110
4.8868561 2.3022048 8.594738 105 98 117
4.4928231 2.1142697 7.893127 118 104 123
4.4977174 2.1142697 7.893127 125 111 130
4.5026116 2.1142697 7.893127 120 106 125
4.5075054 2.1142697 7.893127 139 125 144
4.5123997 2.1142697 7.893127 124 116 139
4.5172939 2.1142697 7.893127 144 136 159
4.5221882 2.1142697 7.893127 136 135 162
4.5270824 2.1142697 7.893127 137 136 163
4.5319762 2.1142697 7.893127 149 154 183
4.5368705 2.1142697 7.893127 148 153 182
4.5417647 2.1142697 7.893127 145 149 170
4.546659 2.1142697 7.893127 150 154 175
4.5515528 2.1142697 7.893127 157 157 179
4.556447 2.1142697 7.893127 157 157 179
4.5613413 2.1142697 7.893127 158 151 178
4.5662355 2.1142697 7.893127 156 149 176
4.5711298 2.1142697 7.893127 159 150 181
4.5760236 2.1142697 7.893127 163 154 185
4.5809178 2.1142697 7.893127 153 147 179
4.5858121 2.1142697 7.893127 152 146 178
4.5907059 2.1142697 7.893127 147 145 178
4.5956001 2.1142697 7.893127 144 142 175
4.6004944 2.1142697 7.893127 139 137 172
4.6053886 2.1142697 7.893127 131 129 164
5.0200853 2.3022048 8.594738 123 120 157
4.6151767 2.1142697 7.893127 118 115 152
4.6200709 2.1142697 7.893127 101 98 139
4.6249652 2.1142697 7.893127 98 95 136
4.629859 2.1142697 7.893127 96 90 126
4.6347532 2.1142697 7.893127 90 84 120
4.2894855 1.9547023 7.2974191 89 77 106
4.2940102 1.9547023 7.2974191 86 74 103
4.2985349 1.9547023 7.2974191 87 73 92
4.3030596 1.9547023 7.2974191 86 72 91
4.3075843 1.9547023 7.2974191 82 68 85
4.3121095 1.9547023 7.2974191 76 62 79
4.3166342 1.9547023 7.2974191 76 66 86
4.3211589 1.9547023 7.2974191 75 65 85
4.3256836 1.9547023 7.2974191 61 56 82
4.6836948 2.1142697 7.893127 69 64 90
4.334733 1.9547023 7.2974191 58 57 85
4.3392582 1.9547023 7.2974191 61 60 88
4.3437829 1.9547023 7.2974191 67 57 95
5.1266689 2.3022048 8.594738 68 58 92
5.1373272 2.3022048 8.594738 65 56 86
4.7375302 2.1142697 7.893127 63 57 77
4.3890305 1.9547023 7.2974191 63 57 77
4.3935552 1.9547023 7.2974191 62 56 76
4.3980799 1.9547023 7.2974191 61 57 78
4.4026046 1.9547023 7.2974191 60 56 77
4.4071293 1.9547023 7.2974191 60 56 77
0.83934551 5.1919518 19.338161 238 230 253
0.85133624 5.1919518 19.338161 233 225 248
0.71943897 4.3266258 16.115133 237 234 251
0.6252268 3.7085369 13.812972 238 235 252
0.55456758 3.2449696 12.08635 236 234 255
0.56206173 3.2449696 12.08635 236 234 255
0.56955588 3.2449696 12.08635 237 234 251
0.57705003 3.2449696 12.08635 236 233 250
0.58454418 3.2449696 12.08635 239 231 254
0.3574571 1.959227 7.2974191 240 232 255
0.33657965 1.8217373 6.7853193 232 232 254
0.31844023 1.7022792 6.3403807 234 234 255
0.32237157 1.7022792 6.3403807 231 231 253
0.28847069 1.5049133 5.6052637 234 234 255
0.29194626 1.5049133 5.6052637 234 234 255
0.29542181 1.5049133 5.6052637 231 231 253
0.29889736 1.5049133 5.6052637 234 234 255
0.24545567 1.2216357 4.5501556 232 232 254
0.23711847 1.1667306 4.345654 235 235 255
0.239813 1.1667306 4.345654 231 231 253
0.24250752 1.1667306 4.345654 235 235 255
0.22497921 1.0705055 3.9872496 235 235 255
0.20241098 0.95265168 3.5482864 234 234 255
0.20461109 0.95265168 3.5482864 233 233 255
0.19949047 0.91892946 3.4226832 229 229 251
0.19471996 0.8875131 3.3056686 232 232 254
0.19676964 0.8875131 3.3056686 234 231 255
0.19881932 0.8875131 3.3056686 234 231 255
0.20797941 0.91892946 3.4226832 236 234 255
0.20291871 0.8875131 3.3056686 236 234 255
0.20496839 0.8875131 3.3056686 236 234 255
0.26044208 1.1165488 4.1587443 234 232 253
0.30198675 1.2819633 4.7748547 231 231 249
0.30494741 1.2819633 4.7748547 230 230 248
0.30790806 1.2819633 4.7748547 234 234 254
0.32701772 1.3485587 5.0228987 232 232 252
0.33013216 1.3485587 5.0228987 233 235 255
0.33324662 1.3485587 5.0228987 228 230 254
0.33636108 1.3485587 5.0228987 222 223 253
0.21801181 0.85817379 3.1963902 220 221 253
0.21999374 0.85817379 3.1963902 227 228 255
0.22197567 0.85817379 3.1963902 231 230 255
0.22395758 0.85817379 3.1963902 234 233 255
0.22593953 0.85817379 3.1963902 232 231 255
0.22792144 0.85817379 3.1963902 235 234 255
0.22990337 0.85817379 3.1963902 235 234 255
0.2318853 0.85817379 3.1963902 232 231 255
0.23386723 0.85817379 3.1963902 234 233 255
0.63417214 2.307534 8.594738 231 230 255
0.58729714 2.1191638 7.893127 229 228 253
0.54749763 1.959227 7.2974191 229 228 253
0.51328397 1.8217373 6.7853193 229 228 253
0.48355737 1.7022792 6.3403807 229 228 253
0.38619235 1.3485587 5.0228987 229 228 253
0.38930678 1.3485587 5.0228987 229 228 253
0.39242128 1.3485587 5.0228987 229 228 253
0.39553571 1.3485587 5.0228987 229 228 253
0.37896377 1.2819633 4.7748547 228 225 251
0.36395153 1.2216357 4.5501556 231 228 254
0.36677286 1.2216357 4.5501556 232 229 255
0.29919526 0.9889431 3.683459 229 226 252
0.30147919 0.9889431 3.683459 229 226 252
0.29261586 0.95265168 3.5482864 232 229 255
0.28438002 0.91892946 3.4226832 231 228 254
0.28650224 0.91892946 3.4226832 228 225 251
0.2886245 0.91892946 3.4226832 234 231 255
0.29074672 0.91892946 3.4226832 231 228 254
0.29286897 0.91892946 3.4226832 230 227 253
0.2949912 0.91892946 3.4226832 231 228 254
0.29711345 0.91892946 3.4226832 231 228 254
0.29923567 0.91892946 3.4226832 230 227 253
0.30135792 0.91892946 3.4226832 231 228 254
0.30348015 0.91892946 3.4226832 234 231 255
0.3056024 0.91892946 3.4226832 226 225 253
0.30772462 0.91892946 3.4226832 225 224 252
0.30984688 0.91892946 3.4226832 226 221 247
0.32341751 0.95265168 3.5482864 227 222 248
0.33802211 0.9889431 3.683459 228 229 255
0.3278178 0.95265168 3.5482864 230 231 255
0.33001789 0.95265168 3.5482864 220 223 255
0.33221802 0.95265168 3.5482864 209 212 254
0.33441815 0.95265168 3.5482864 212 208 253
0.33661824 0.95265168 3.5482864 217 213 255
0.33881837 0.95265168 3.5482864 224 222 255
0.34101847 0.95265168 3.5482864 228 226 255
0.34321862 0.95265168 3.5482864 227 228 255
0.34541875 0.95265168 3.5482864 227 228 255
0.34761885 0.95265168 3.5482864 232 226 255
0.34981897 0.95265168 3.5482864 232 226 255
0.3520191 0.95265168 3.5482864 228 222 255
0.3542192 0.95265168 3.5482864 230 224 255
0.36999717 0.9889431 3.683459 232 226 255
0.3722811 0.9889431 3.683459 231 225 255
0.37456506 0.9889431 3.683459 227 224 253
0.376849 0.9889431 3.683459 226 223 252
0.37913293 0.9889431 3.683459 226 225 253
0.39652249 1.0281092 3.8293388 227 226 254
0.39889687 1.0281092 3.8293388 228 228 250
0.40127128 1.0281092 3.8293388 227 227 249
0.40364566 1.0281092 3.8293388 229 232 251
0.40602005 1.0281092 3.8293388 223 226 245
0.40839443 1.0281092 3.8293388 223 226 253
0.41076881 1.0281092 3.8293388 218 221 248
0.41314319 1.0281092 3.8293388 222 223 255
0.41551757 1.0281092 3.8293388 222 223 255
0.41789195 1.0281092 3.8293388 219 219 255
0.42026636 1.0281092 3.8293388 217 217 255
0.42264074 1.0281092 3.8293388 213 213 255
0.42501512 1.0281092 3.8293388 209 209 252
0.42738953 1.0281092 3.8293388 205 204 253
0.42976388 1.0281092 3.8293388 198 197 246
0.43213826 1.0281092 3.8293388 188 189 243
0.43451265 1.0281092 3.8293388 183 184 238
0.42024371 0.9889431 3.683459 168 169 227
0.40702206 0.95265168 3.5482864 162 163 221
0.40922219 0.95265168 3.5482864 156 158 219
0.41142231 0.95265168 3.5482864 157 159 220
0.42937946 0.9889431 3.683459 156 158 219
0.43166339 0.9889431 3.683459 149 151 212
0.53887391 1.2216357 4.5501556 135 137 201
1.781468 3.7085369 13.812972 48 43 61
1.5662787 3.2449696 12.08635 48 43 61
1.7985976 3.7085369 13.812972 48 44 55
1.4055706 2.8844173 10.743423 48 44 55
1.815727 3.7085369 13.812972 48 44 54
2.1316712 2.307534 8.594738 58 54 65
2.1370003 2.307534 8.594738 56 52 63
2.1423295 2.307534 8.594738 55 51 62
2.1476586 2.307534 8.594738 56 52 63
2.1529877 2.307534 8.594738 58 54 65
2.4281068 2.5959759 9.6690807 55 51 62
2.4341021 2.5959759 9.6690807 48 44 55
2.4400973 2.5959759 9.6690807 41 37 48
2.1743045 2.307534 8.594738 19 15 26
2.1796336 2.307534 8.594738 18 14 25
2.1849627 2.307534 8.594738 16 12 23
2.1902921 2.307534 8.594738 15 11 22
2.1956213 2.307534 8.594738 14 10 21
2.2009504 2.307534 8.594738 14 10 21
2.2062795 2.307534 8.594738 14 10 21
2.2116086 2.307534 8.594738 15 11 22
2.216938 2.307534 8.594738 12 8 16
2.2222672 2.307534 8.594738 12 8 16
2.5060461 2.5959759 9.6690807 12 8 16
2.2329254 2.307534 8.594738 11 7 15
2.2382548 2.307534 8.594738 11 7 15
2.2435839 2.307534 8.594738 10 6 14
2.2542422 2.307534 8.594738 10 6 14
2.2072585 2.1191638 7.893127 8 6 13
2.2121527 2.1191638 7.893127 8 6 13
2.2170467 2.1191638 7.893127 6 4 11
2.221941 2.1191638 7.893127 5 3 10
2.226835 2.1191638 7.893127 4 2 9
2.2317293 2.1191638 7.893127 4 2 9
2.2366233 2.1191638 7.893127 6 4 11
2.2415175 2.1191638 7.893127 8 6 13
2.2464116 2.1191638 7.893127 7 5 12
2.2513058 2.1191638 7.893127 6 4 11
2.2561998 2.1191638 7.893127 6 4 11
2.2610941 2.1191638 7.893127 8 6 13
2.2659881 2.1191638 7.893127 10 8 15
2.2708824 2.1191638 7.893127 6 5 18
2.2757764 2.1191638 7.893127 8 7 20
2.2806706 2.1191638 7.893127 11 10 23
2.2855649 2.1191638 7.893127 13 12 25
2.2904589 2.1191638 7.893127 15 14 27
2.2953529 2.1191638 7.893127 15 14 27
2.3002472 2.1191638 7.893127 15 14 27
2.3051414 2.1191638 7.893127 14 13 26
2.3100355 2.1191638 7.893127 7 6 19
2.3149295 2.1191638 7.893127 8 7 20
2.3198237 2.1191638 7.893127 9 8 21
2.324718 2.1191638 7.893127 11 10 23
2.5366886 2.307534 8.594738 13 12 25
2.334506 2.1191638 7.893127 12 11 24
2.3394003 2.1191638 7.893127 9 8 21
2.3442945 2.1191638 7.893127 6 5 18
2.3491886 2.1191638 7.893127 7 8 12
2.3540828 2.1191638 7.893127 8 9 13
2.3589771 2.1191638 7.893127 8 9 13
2.3638711 2.1191638 7.893127 8 9 13
2.0325136 1.7022792 6.3403807 30 29 42
2.0364449 1.7022792 6.3403807 31 30 43
2.0403762 1.7022792 6.3403807 31 30 43
2.0443077 1.7022792 6.3403807 34 33 46
2.1919749 1.8217373 6.7853193 35 34 47
2.1961823 1.8217373 6.7853193 36 35 48
2.2003894 1.8217373 6.7853193 37 36 49
2.3709815 1.959227 7.2974191 38 37 50
2.2088039 1.8217373 6.7853193 39 38 51
2.213011 1.8217373 6.7853193 40 39 52
2.2172184 1.8217373 6.7853193 41 40 53
2.2214258 1.8217373 6.7853193 50 44 55
2.2256329 1.8217373 6.7853193 50 44 55
2.22984 1.8217373 6.7853193 51 45 56
2.2340474 1.8217373 6.7853193 52 46 57
2.2382545 1.8217373 6.7853193 53 47 58
2.2424619 1.8217373 6.7853193 54 48 59
2.0993466 1.7022792 6.3403807 55 49 60
2.2508762 1.8217373 6.7853193 55 49 60
2.4252787 1.959227 7.2974191 55 49 60
2.628155 2.1191638 7.893127 56 50 61
2.8670979 2.307534 8.594738 57 51 62
2.872427 2.307534 8.594738 58 52 63
2.8777561 2.307534 8.594738 59 53 64
2.8830853 2.307534 8.594738 60 54 65
2.8884144 2.307534 8.594738 61 55 66
2.8937435 2.307534 8.594738 61 55 66
2.8990729 2.307534 8.594738 52 51 68
2.904402 2.307534 8.594738 52 51 68
2.9097311 2.307534 8.594738 52 51 68
2.9150603 2.307534 8.594738 52 51 68
2.9203894 2.307534 8.594738 55 52 69
2.9257185 2.307534 8.594738 55 52 69
2.9310479 2.307534 8.594738 55 52 69
2.936377 2.307534 8.594738 55 52 69
2.9417062 2.307534 8.594738 54 49 67
2.9470353 2.307534 8.594738 54 49 67
2.9523644 2.307534 8.594738 53 48 66
2.9576936 2.307534 8.594738 48 43 61
2.9630227 2.307534 8.594738 40 35 53
2.9683521 2.307534 8.594738 29 24 42
2.9736812 2.307534 8.594738 18 13 31
2.9790103 2.307534 8.594738 12 7 25
2.9843395 2.307534 8.594738 11 7 15
2.9896686 2.307534 8.594738 10 6 14
2.9949977 2.307534 8.594738 9 5 15
3.0003271 2.307534 8.594738 8 4 14
3.0056562 2.307534 8.594738 7 3 13
3.0109854 2.307534 8.594738 8 4 14
3.0163145 2.307534 8.594738 8 4 15
3.0216436 2.307534 8.594738 9 5 16
3.0269728 2.307534 8.594738 11 7 18
3.0323021 2.307534 8.594738 10 6 17
3.0376313 2.307534 8.594738 9 4 18
3.0429604 2.307534 8.594738 10 5 19
3.0482895 2.307534 8.594738 12 7 21
3.0536187 2.307534 8.594738 16 11 25
3.0589478 2.307534 8.594738 21 16 30
3.0642772 2.307534 8.594738 23 18 32
3.0696065 2.307534 8.594738 47 42 58
3.0749357 2.307534 8.594738 52 47 63
3.0802648 2.307534 8.594738 53 48 62
3.0855939 2.307534 8.594738 59 54 68
3.0909233 2.307534 8.594738 53 48 62
3.0962524 2.307534 8.594738 56 51 65
3.1015816 2.307534 8.594738 51 47 58
3.1069107 2.307534 8.594738 53 49 60
3.1122398 2.307534 8.594738 38 34 45
3.117569 2.307534 8.594738 30 26 37
3.1228983 2.307534 8.594738 20 16 26
3.1282275 2.307534 8.594738 13 9 19
3.1335566 2.307534 8.594738 11 7 17
3.1388857 2.307534 8.594738 11 7 17
3.1442149 2.307534 8.594738 10 6 14
3.149544 2.307534 8.594738 8 4 12
3.1548734 2.307534 8.594738 6 6 16
3.1602025 2.307534 8.594738 6 6 16
3.1655316 2.307534 8.594738 7 7 17
3.1708608 2.307534 8.594738 7 7 17
3.1761899 2.307534 8.594738 7 7 17
3.181519 2.307534 8.594738 7 7 17
3.1868484 2.307534 8.594738 7 7 17
3.1921775 2.307534 8.594738 8 8 18
3.1975067 2.307534 8.594738 11 11 21
3.2028358 2.307534 8.594738 10 10 20
3.2081649 2.307534 8.594738 8 8 18
3.2134941 2.307534 8.594738 7 7 17
3.2188234 2.307534 8.594738 9 9 19
3.2241526 2.307534 8.594738 12 12 22
3.2294817 2.307534 8.594738 15 15 25
3.2348108 2.307534 8.594738 17 17 27
3.24014 2.307534 8.594738 32 30 49
3.2454691 2.307534 8.594738 38 36 55
3.8070314 2.5959759 9.6690807 63 59 82
3.8130267 2.5959759 9.6690807 63 59 82
3.8190222 2.5959759 9.6690807 64 60 83
3.8250175 2.5959759 9.6690807 64 60 83
3.8310127 2.5959759 9.6690807 64 60 83
4.2633424 2.8844173 10.743423 65 61 82
3.8430035 2.5959759 9.6690807 65 61 82
3.8489988 2.5959759 9.6690807 65 61 80
3.8549941 2.5959759 9.6690807 65 61 80
3.8609896 2.5959759 9.6690807 65 62 79
3.8669848 2.5959759 9.6690807 65 62 79
3.8729801 2.5959759 9.6690807 65 62 79
3.8789754 2.5959759 9.6690807 65 62 79
3.8849709 2.5959759 9.6690807 66 62 83
3.8909662 2.5959759 9.6690807 66 62 83
3.8969615 2.5959759 9.6690807 66 62 83
3.902957 2.5959759 9.6690807 67 63 84
3.9089522 2.5959759 9.6690807 67 63 82
3.9149473 2.5959759 9.6690807 68 64 83
3.9209425 2.5959759 9.6690807 68 65 82
3.9269381 2.5959759 9.6690807 68 65 82
3.9329333 2.5959759 9.6690807 65 63 82
3.9389286 2.5959759 9.6690807 65 63 82
3.9449239 2.5959759 9.6690807 65 63 84
3.9509194 2.5959759 9.6690807 66 64 85
3.9569147 2.5959759 9.6690807 67 65 86
3.9629099 2.5959759 9.6690807 68 66 87
3.9689054 2.5959759 9.6690807 68 66 89
3.9749007 2.5959759 9.6690807 69 67 90
3.980896 2.5959759 9.6690807 65 62 90
3.9868913 2.5959759 9.6690807 69 66 94
3.9928868 2.5959759 9.6690807 77 74 103
3.9988821 2.5959759 9.6690807 73 70 99
4.0048771 2.5959759 9.6690807 83 80 109
4.0108728 2.5959759 9.6690807 88 85 114
4.0168681 2.5959759 9.6690807 104 100 132
4.0228634 2.5959759 9.6690807 108 104 136
4.0288587 2.5959759 9.6690807 144 139 167
4.0348539 2.5959759 9.6690807 130 125 153
4.0408492 2.5959759 9.6690807 159 156 193
4.0468445 2.5959759 9.6690807 142 139 176
4.0528398 2.5959759 9.6690807 161 165 212
4.0588355 2.5959759 9.6690807 156 160 207
4.0648303 2.5959759 9.6690807 160 168 218
4.0708256 2.5959759 9.6690807 169 177 227
4.0768213 2.5959759 9.6690807 171 180 223
4.0828166 2.5959759 9.6690807 175 184 227
4.0888119 2.5959759 9.6690807 168 169 207
4.0948071 2.5959759 9.6690807 171 172 210
4.1008024 2.5959759 9.6690807 189 183 219
4.1067977 2.5959759 9.6690807 185 179 215
4.112793 2.5959759 9.6690807 192 179 218
4.1187887 2.5959759 9.6690807 188 175 214
3.6664743 2.307534 8.594738 171 170 197
4.1307793 2.5959759 9.6690807 162 161 188
3.6771326 2.307534 8.594738 138 137 181
3.6824617 2.307534 8.594738 151 150 194
3.6877909 2.307534 8.594738 112 110 161
3.69312 2.307534 8.594738 124 122 173
3.6984494 2.307534 8.594738 102 103 137
3.7037785 2.307534 8.594738 104 105 139
3.7091076 2.307534 8.594738 96 96 118
3.7144368 2.307534 8.594738 98 98 120
4.1847372 2.5959759 9.6690807 95 90 116
4.1907325 2.5959759 9.6690807 97 92 118
3.7304244 2.307534 8.594738 89 80 108
3.7357535 2.307534 8.594738 92 83 111
3.7410827 2.307534 8.594738 90 79 99
3.7464118 2.307534 8.594738 93 82 102
3.7517409 2.307534 8.594738 84 78 98
3.7570705 2.307534 8.594738 76 70 90
3.7623997 2.307534 8.594738 81 76 102
4.2386951 2.5959759 9.6690807 69 64 90
4.2446904 2.5959759 9.6690807 80 77 103
4.2506857 2.5959759 9.6690807 66 63 89
4.256681 2.5959759 9.6690807 71 71 89
3.7890456 2.307534 8.594738 64 64 82
3.7943747 2.307534 8.594738 68 68 86
3.7997038 2.307534 8.594738 65 65 83
3.805033 2.307534 8.594738 63 62 87
3.8103621 2.307534 8.594738 62 61 86
3.8156912 2.307534 8.594738 63 63 85
3.8210206 2.307534 8.594738 62 62 84
3.8263497 2.307534 8.594738 61 60 75
4.3106389 2.5959759 9.6690807 60 59 74
4.3166342 2.5959759 9.6690807 73 58 85
3.8423371 2.307534 8.594738 71 56 83
4.3286247 2.5959759 9.6690807 67 56 82
3.8529956 2.307534 8.594738 68 57 83
3.8583248 2.307534 8.594738 65 61 82
5.2219286 2.5959759 9.6690807 58 54 73
5.2279239 2.5959759 9.6690807 58 54 73
5.2339191 2.5959759 9.6690807 58 54 73
5.2399139 2.5959759 9.6690807 58 54 73
5.2459092 2.5959759 9.6690807 58 54 73
5.2519045 2.5959759 9.6690807 58 54 73
4.6736889 2.307534 8.594738 58 54 73
4.679018 2.307534 8.594738 58 54 73
4.6843472 2.307534 8.594738 58 54 73
4.6896768 2.307534 8.594738 59 55 78
4.6950059 2.307534 8.594738 59 55 78
4.700335 2.307534 8.594738 58 54 77
4.7056642 2.307534 8.594738 57 53 76
4.7109933 2.307534 8.594738 57 53 76
4.7163224 2.307534 8.594738 58 54 77
4.7216516 2.307534 8.594738 59 55 76
4.7269807 2.307534 8.594738 59 55 76
4.7323098 2.307534 8.594738 58 54 75
4.737639 2.307534 8.594738 58 54 75
4.7429681 2.307534 8.594738 58 54 73
4.7482972 2.307534 8.594738 58 54 73
4.7536268 2.307534 8.594738 58 54 73
4.758956 2.307534 8.594738 58 54 73
4.7642851 2.307534 8.594738 58 54 73
4.7696142 2.307534 8.594738 58 54 73
4.7749434 2.307534 8.594738 60 56 77
4.7802725 2.307534 8.594738 59 55 76
4.7856016 2.307534 8.594738 58 54 75
4.3998342 2.1191638 7.893127 59 55 76
4.7962599 2.307534 8.594738 61 57 78
4.4096227 2.1191638 7.893127 62 58 79
4.8069181 2.307534 8.594738 61 57 78
4.4194112 2.1191638 7.893127 60 56 77
4.4243054 2.1191638 7.893127 61 57 78
4.4291992 2.1191638 7.893127 61 57 78
4.4340935 2.1191638 7.893127 61 57 78
4.4389877 2.1191638 7.893127 61 57 78
4.443882 2.1191638 7.893127 61 57 78
4.4487762 2.1191638 7.893127 61 57 78
4.45367 2.1191638 7.893127 61 57 78
4.4585643 2.1191638 7.893127 61 57 78
4.4634585 2.1191638 7.893127 54 61 81
4.4683523 2.1191638 7.893127 56 63 83
4.4732466 2.1191638 7.893127 64 64 84
4.4781408 2.1191638 7.893127 65 65 85
4.4830351 2.1191638 7.893127 71 64 83
4.4879293 2.1191638 7.893127 74 67 86
4.4928231 2.1191638 7.893127 84 70 89
4.4977174 2.1191638 7.893127 88 74 93
4.5026116 2.1191638 7.893127 90 76 95
4.5075054 2.1191638 7.893127 100 86 105
4.5123997 2.1191638 7.893127 96 88 111
4.5172939 2.1191638 7.893127 101 93 116
4.5221882 2.1191638 7.893127 104 103 130
4.5270824 2.1191638 7.893127 94 93 120
4.5319762 2.1191638 7.893127 110 115 144
4.5368705 2.1191638 7.893127 106 111 140
4.5417647 2.1191638 7.893127 125 129 150
4.546659 2.1191638 7.893127 132 136 157
4.5515528 2.1191638 7.893127 144 144 166
4.556447 2.1191638 7.893127 149 149 171
4.5613413 2.1191638 7.893127 154 147 174
4.5662355 2.1191638 7.893127 155 148 175
4.5711298 2.1191638 7.893127 160 151 182
4.5760236 2.1191638 7.893127 163 154 185
4.5809178 2.1191638 7.893127 156 150 182
4.5858121 2.1191638 7.893127 158 152 184
4.5907059 2.1191638 7.893127 157 155 188
4.5956001 2.1191638 7.893127 158 156 189
4.6004944 2.1191638 7.893127 157 155 190
4.6053886 2.1191638 7.893127 155 153 188
4.6102829 2.1191638 7.893127 153 150 187
4.6151767 2.1191638 7.893127 152 149 186
4.2713861 1.959227 7.2974191 144 141 182
4.6249652 2.1191638 7.893127 141 138 179
4.2804356 1.959227 7.2974191 139 133 169
4.2849607 1.959227 7.2974191 133 127 163
4.2894855 1.959227 7.2974191 131 119 148
4.2940102 1.959227 7.2974191 126 114 143
4.2985349 1.959227 7.2974191 125 111 130
4.3030596 1.959227 7.2974191 123 109 128
4.3075843 1.959227 7.2974191 125 111 128
4.3121095 1.959227 7.2974191 110 96 113
4.3166342 1.959227 7.2974191 111 101 121
4.3211589 1.959227 7.2974191 91 81 101
4.3256836 1.959227 7.2974191 84 79 105
4.6836948 2.1191638 7.893127 75 70 96
4.334733 1.959227 7.2974191 72 71 99
4.3392582 1.959227 7.2974191 69 68 96
4.3437829 1.959227 7.2974191 72 62 100
4.7032714 2.1191638 7.893127 75 65 103
5.1266689 2.307534 8.594738 67 57 91
5.1319981 2.307534 8.594738 75 65 99
5.1373272 2.307534 8.594738 63 54 84
5.1426563 2.307534 8.594738 71 62 92
5.1479855 2.307534 8.594738 62 56 78
4.7326365 2.1191638 7.893127 65 59 81
4.7375302 2.1191638 7.893127 63 57 77
4.7424245 2.1191638 7.893127 63 57 77
4.3890305 1.959227 7.2974191 63 57 77
4.3935552 1.959227 7.2974191 63 57 77
4.3980799 1.959227 7.2974191 62 58 79
4.4026046 1.959227 7.2974191 61 57 78
4.4071293 1.959227 7.2974191 61 57 78
4.411654 1.959227 7.2974191 61 57 78
4.4161792 1.959227 7.2974191 62 57 73
4.4207039 1.959227 7.2974191 64 59 75
4.4252286 1.959227 7.2974191 59 56 71
4.4297533 1.959227 7.2974191 62 59 74
4.8011541 2.1191638 7.893127 58 57 74
4.8109426 2.1191638 7.893127 54 55 71
4.8158369 2.1191638 7.893127 57 56 73
4.8207307 2.1191638 7.893127 55 54 71
5.2598987 2.307534 8.594738 57 53 72
0.83934551 5.2039423 19.338161 231 229 252
0.60809726 3.7171016 13.812972 232 230 253
0.71943897 4.3366184 16.115133 234 238 253
0.6252268 3.7171016 13.812972 233 237 252
0.55456758 3.2524638 12.08635 234 234 254
0.56206173 3.2524638 12.08635 235 235 255
0.56955588 3.2524638 12.08635 237 235 254
0.57705003 3.2524638 12.08635 237 235 254
0.58454418 3.2524638 12.08635 236 234 255
0.3323724 1.8259445 6.7853193 235 233 254
0.33657965 1.8259445 6.7853193 232 232 254
0.31844023 1.7062105 6.3403807 234 234 255
0.32237157 1.7062105 6.3403807 231 231 253
0.28847069 1.508389 5.6052637 233 233 255
0.29194626 1.508389 5.6052637 233 233 255
0.29542181 1.508389 5.6052637 231 231 253
0.29889736 1.508389 5.6052637 234 234 255
0.23442394 1.1694251 4.345654 232 232 254
0.23711847 1.1694251 4.345654 234 234 255
0.239813 1.1694251 4.345654 230 230 252
0.24250752 1.1694251 4.345654 234 234 255
0.20783792 0.99122703 3.683459 234 234 255
0.21012186 0.99122703 3.683459 234 234 255
0.20461109 0.95485175 3.5482864 233 233 255
0.19949047 0.92105174 3.4226832 229 229 251
0.19471996 0.88956279 3.3056686 232 232 254
0.20373492 0.92105174 3.4226832 236 233 255
0.20585717 0.92105174 3.4226832 236 233 255
0.20797941 0.92105174 3.4226832 236 234 255
0.20291871 0.88956279 3.3056686 236 234 255
0.20496839 0.88956279 3.3056686 236 234 255
0.20701806 0.88956279 3.3056686 235 233 254
0.28777561 1.224457 4.5501556 234 234 254
0.29059693 1.224457 4.5501556 233 233 253
0.30790806 1.284924 4.7748547 237 237 255
0.32701772 1.3516732 5.0228987 232 232 254
0.33013216 1.3516732 5.0228987 232 234 255
0.33324662 1.3516732 5.0228987 229 231 255
0.20911695 0.83263075 3.0941057 219 220 252
0.21103545 0.83263075 3.0941057 216 217 251
0.21295395 0.83263075 3.0941057 224 225 255
0.22197567 0.8601557 3.1963902 231 230 255
0.22395758 0.8601557 3.1963902 234 233 255
0.22593953 0.8601557 3.1963902 231 230 255
0.22792144 0.8601557 3.1963902 234 233 255
0.22990337 0.8601557 3.1963902 234 233 255
0.2318853 0.8601557 3.1963902 231 230 255
0.62884295 2.3128631 8.594738 234 233 255
0.63417214 2.3128631 8.594738 231 230 255
0.58729714 2.124058 7.893127 229 228 253
0.54749763 1.9637517 7.2974191 229 228 253
0.51328397 1.8259445 6.7853193 229 228 253
0.51749122 1.8259445 6.7853193 229 228 253
0.40735358 1.4257375 5.2981262 229 228 253
0.38930678 1.3516732 5.0228987 229 228 253
0.37304246 1.284924 4.7748547 229 228 253
0.37600312 1.284924 4.7748547 229 228 253
0.37896377 1.284924 4.7748547 230 227 253
0.36395153 1.224457 4.5501556 231 228 254
0.36677286 1.224457 4.5501556 231 228 254
0.35298318 1.1694251 4.345654 228 225 251
0.29041576 0.95485175 3.5482864 228 225 251
0.29261586 0.95485175 3.5482864 231 228 254
0.29481599 0.95485175 3.5482864 231 228 254
0.29701611 0.95485175 3.5482864 230 227 253
0.2886245 0.92105174 3.4226832 233 230 255
0.29074672 0.92105174 3.4226832 230 227 253
0.29286897 0.92105174 3.4226832 229 226 252
0.2949912 0.92105174 3.4226832 231 228 254
0.29711345 0.92105174 3.4226832 231 228 254
0.29923567 0.92105174 3.4226832 229 226 252
0.30135792 0.92105174 3.4226832 230 227 253
0.30348015 0.92105174 3.4226832 232 229 255
0.3056024 0.92105174 3.4226832 226 224 255
0.30772462 0.92105174 3.4226832 225 223 255
0.32121742 0.95485175 3.5482864 226 220 254
0.32341751 0.95485175 3.5482864 227 221 255
0.33802211 0.99122703 3.683459 227 228 255
0.34030604 0.99122703 3.683459 230 231 255
0.34259 0.99122703 3.683459 223 228 255
0.33221802 0.95485175 3.5482864 217 222 255
0.33441815 0.95485175 3.5482864 223 221 255
0.33661824 0.95485175 3.5482864 223 221 255
0.33881837 0.95485175 3.5482864 222 224 251
0.35400966 0.99122703 3.683459 224 226 253
0.34321862 0.95485175 3.5482864 225 228 252
0.34541875 0.95485175 3.5482864 226 229 253
0.34761885 0.95485175 3.5482864 231 226 254
0.34981897 0.95485175 3.5482864 229 224 252
0.3520191 0.95485175 3.5482864 229 224 253
