ply
format ascii 1.0
comment PCL generated
element vertex 1174
property float x
property float y
property float z
property uchar red
property uchar green
property uchar blue
element camera 0
property float view_px
property float view_py
property float view_pz
property float x_axisx
property float x_axisy
property float x_axisz
property float y_axisx
property float y_axisy
property float y_axisz
property float z_axisx
property float z_axisy
property float z_axisz
property float focal
property float scalex
property float scaley
property float centerx
property float centery
property int viewportx
property int viewporty
property float k1
property float k2
end_header
2.5433707 3.6717629 8.5947313 79 71 91
2.6228821 3.6765165 8.5947332 77 70 90
2.7399323 3.655632 8.5947409 85 79 98
2.85111 3.6259725 8.594738 87 77 101
3.076664 3.6696441 8.594738 88 81 107
3.1674695 3.6805236 8.5947409 92 81 104
3.2222831 3.6726449 8.5947342 91 80 103
3.3615146 3.6631591 8.5947304 89 80 106
3.4437935 3.6627767 8.5947304 89 80 105
3.5549779 3.6613979 8.5947304 89 80 103
3.6458731 3.6585655 8.5947304 88 78 102
3.7550297 3.6610789 8.5947294 90 79 103
3.8444593 3.6585271 8.5947304 89 79 102
3.9503064 3.6682079 8.5947304 91 80 106
4.0550671 3.662457 8.5947304 91 80 104
4.1334729 3.6682129 8.5947361 93 83 107
4.2635808 3.659714 8.5947323 93 83 106
4.3327589 3.6569197 8.5947304 92 82 106
4.4455838 3.6540401 8.5947332 91 80 104
4.5433168 3.6519501 8.5947294 93 83 105
4.6486063 3.6583745 8.5947323 93 82 104
4.73803 3.6572349 8.5947304 94 82 104
4.8033657 3.6487103 8.594738 102 87 109
0.65650403 3.7240801 8.5947409 54 47 64
0.70611602 3.7597351 8.594738 56 49 66
0.89530188 3.7357535 8.594738 58 51 66
0.97092301 3.7515273 8.5947304 57 50 65
1.0142094 3.7394171 8.5947399 60 53 69
1.1660241 3.7304246 8.594738 65 58 75
1.2692329 3.7255394 8.594739 62 55 70
1.3301102 3.721338 8.5947332 67 60 77
1.4961666 3.7077754 8.594738 66 56 72
1.5522363 3.7177794 8.5947342 70 61 77
1.6489211 3.7113135 8.5947342 73 63 81
1.7536328 3.710773 8.5947399 76 66 86
1.8385663 3.7997038 8.594738 70 65 81
1.9700193 3.705555 8.594738 75 65 84
2.07305 3.7810516 8.594738 70 63 82
2.3499806 3.7285547 8.5947342 79 69 89
2.4807324 3.7064433 8.594738 84 76 97
2.5831289 3.7207813 8.5947409 75 67 86
2.6019709 3.7091076 8.594738 77 70 87
3.0802648 3.733089 8.594738 87 79 100
3.193954 3.7073314 8.594738 94 83 107
3.2172241 3.7101731 8.5947409 94 83 107
3.6984496 3.7837162 8.594738 86 78 101
3.7037785 3.7064431 8.594738 81 70 94
3.9462559 3.7437472 8.594738 92 82 107
4.1834044 3.7091076 8.594738 89 78 102
4.3059754 3.7997038 8.594738 96 85 111
4.5084844 3.7064431 8.594738 93 82 106
4.8939614 3.7173975 8.594739 88 79 102
4.9117255 3.7171016 8.594738 93 85 108
0.98341107 3.8377192 8.5947399 63 56 71
1.1137981 3.8130267 8.594738 65 58 75
1.2624822 3.8146255 8.594739 67 60 77
1.5348033 3.8316789 8.594738 76 66 84
2.0244954 3.8488507 8.594739 74 67 86
4.412559 3.8216126 8.594739 91 81 104
4.6668377 3.8278723 8.594738 88 76 99
4.8619862 3.8316789 8.594738 88 78 100
2.1218002 3.2930686 8.7900724 173 170 223
2.637943 3.2374756 8.7900734 66 69 86
2.8695807 3.2729025 8.7900734 142 127 168
3.095768 3.2429259 8.7900734 70 65 91
3.116116 3.2729032 8.7900715 156 152 181
3.3955343 3.2660894 8.7900734 155 157 190
3.4227858 3.2974291 8.7900734 136 135 181
3.5281582 3.272903 8.7900734 156 158 191
3.6625991 3.2753067 8.7900715 150 140 169
3.7498033 3.2919784 8.7900734 166 144 178
3.8806105 3.2639482 8.7900734 202 200 226
3.9078619 3.2429259 8.7900734 77 76 101
4.0708756 3.2325211 8.7900724 81 77 106
1.3324157 3.3392148 8.7900724 70 63 78
1.4570459 3.3482985 8.7900734 66 56 72
1.5837919 3.3375049 8.7900715 72 61 79
1.6032952 3.3355808 8.7900734 74 63 82
2.1269782 3.3197753 8.7900715 118 104 129
2.283674 3.3246803 8.7900734 80 72 93
2.8941069 3.3192301 8.7900734 94 87 114
3.0914078 3.3214104 8.7900734 95 84 107
3.1551156 3.3143854 8.7900734 106 97 124
3.2738109 3.3107522 8.7900734 107 93 121
3.3955343 3.3137798 8.7900734 95 84 108
3.4227858 3.3110547 8.7900734 97 88 117
3.531791 3.3085666 8.7900715 97 91 119
3.6636202 3.3127577 8.7900715 98 87 116
3.8642597 3.3083296 8.7900734 102 90 119
3.9787157 3.3246803 8.7900734 103 91 117
4.8071609 3.4909143 8.7900734 96 84 106
3.2420876 3.5758135 8.7900724 147 142 179
3.6734996 3.5735774 8.7900734 181 182 211
3.798856 3.5917447 8.7900734 253 251 255
4.4828682 3.5372419 8.7900734 103 90 121
4.5597177 3.5339718 8.7900734 99 92 112
5.5184245 3.5971951 8.7900734 238 226 255
1.6547098 3.6805847 8.7900724 105 91 119
1.8930695 3.6753159 8.7900734 91 80 105
1.9021531 3.6789494 8.7900734 81 73 98
2.0820129 3.6953006 8.7900734 78 73 91
2.2582393 3.6744075 8.7900734 115 106 132
2.337229 3.6815565 8.7900715 95 87 110
2.4935102 3.6844001 8.7900734 86 79 98
2.5387197 3.6897099 8.7900705 85 75 96
2.6851795 3.6758614 8.7900715 120 110 132
2.7744601 3.6776516 8.7900715 94 86 111
2.8536949 3.6780186 8.7900696 96 85 111
2.9238358 3.6886113 8.7900715 90 78 100
3.0739672 3.6890717 8.7900734 84 76 99
3.1572399 3.6743023 8.7900705 110 102 126
3.2522113 3.6837935 8.7900705 102 92 116
3.3141432 3.6905773 8.7900724 88 78 102
3.4317398 3.6937435 8.7900724 92 81 107
3.5549555 3.6918943 8.7900734 89 79 103
3.6614423 3.6847291 8.7900705 92 80 105
3.7572803 3.6832819 8.7900772 90 80 105
3.8481531 3.6803319 8.7900734 93 82 108
3.9519598 3.6829963 8.7900734 92 83 110
4.0490155 3.6888332 8.7900705 95 85 110
4.1394992 3.6855907 8.7900724 93 82 107
4.2686448 3.6862605 8.7900696 97 86 112
4.3493361 3.6835144 8.7900782 95 84 108
4.4320683 3.6831412 8.7900705 95 84 109
4.5438848 3.6809816 8.7900705 97 86 110
4.6524253 3.6870573 8.7900696 94 83 105
4.8361564 3.6905034 8.7900705 95 84 106
5.3848925 3.6407976 8.7900734 121 104 140
5.4284945 3.6353474 8.7900734 133 126 166
5.5599074 3.6341362 8.7900734 159 143 171
5.6029038 3.6625986 8.7900734 93 81 105
6.3986468 3.6516981 8.7900734 77 68 98
0.67992437 3.7961309 8.7900734 52 45 62
0.80482697 3.7134681 8.7900734 61 56 71
1.1892546 3.7792351 8.7900734 61 54 71
1.2698121 3.74505 8.7900829 63 56 73
1.3304336 3.7409806 8.790082 65 56 74
1.4174103 3.7401266 8.7900696 61 55 71
1.5535257 3.7564981 8.7900705 70 60 75
1.6366919 3.7339342 8.7900743 69 59 78
1.7277437 3.7661545 8.7900734 74 64 82
1.882169 3.7625213 8.7900734 68 60 81
1.9720004 3.7277515 8.7900724 75 67 87
2.0559442 3.7283397 8.790081 77 69 87
2.1063788 3.7356963 8.7900715 76 69 88
2.4355037 3.7163231 8.7900734 82 74 96
2.5462427 3.7207806 8.7900839 81 74 95
2.6561434 3.7272015 8.7900839 78 70 91
2.7479901 3.7402513 8.7900801 84 77 100
2.849159 3.7238977 8.7900782 86 77 99
2.9108214 3.712378 8.7900724 88 79 103
3.1436172 3.7236142 8.7900772 90 81 105
3.2801695 3.7116511 8.7900715 86 77 100
3.3334968 3.7182236 8.7900705 90 80 104
3.4434187 3.7161946 8.7900791 92 81 107
3.5593762 3.7163713 8.7900782 91 80 106
3.6448686 3.7107525 8.7900782 92 80 105
3.7504153 3.7131534 8.790082 88 78 103
3.8393254 3.7145836 8.7900782 92 81 106
3.949872 3.712755 8.7900801 91 83 107
4.0536904 3.7179601 8.790081 91 81 106
4.1434355 3.7172658 8.790082 91 80 106
4.2634492 3.7147276 8.7900715 95 84 110
4.3459539 3.716495 8.7900839 93 82 107
4.4599123 3.7126687 8.7900705 93 82 106
4.5442524 3.7181919 8.7900782 92 81 105
4.662858 3.7072399 8.7900715 95 85 107
4.7545862 3.7197602 8.7900782 94 84 105
4.8334107 3.7089829 8.7900696 95 84 106
5.1178279 3.7334526 8.7900734 100 85 110
0.68128693 3.8102109 8.7900724 56 49 66
1.0164802 3.8642597 8.7900734 61 54 69
1.19634 3.8070316 8.7900734 66 59 76
1.2450033 3.8424587 8.7900734 67 60 77
1.308071 3.8642597 8.7900734 70 63 79
2.3913174 3.8410959 8.7900734 78 69 89
2.4144809 3.837008 8.7900734 79 69 90
2.6575642 3.8108468 8.7900734 78 71 90
3.786139 3.8751602 8.7900734 87 79 102
4.0304937 3.8724351 8.7900734 91 83 106
4.3983889 3.8969615 8.7900734 96 85 111
4.4117112 3.8896942 8.7900734 91 80 106
4.6545525 3.8969617 8.7900734 93 82 108
4.764164 3.8881807 8.7900715 91 79 101
1.8585508 3.9078619 8.7900734 71 64 81
2.6978965 3.9051368 8.7900734 73 65 88
4.4092894 3.9024119 8.7900734 91 80 106
4.5182948 3.9078619 8.7900734 94 83 107
4.7643371 3.9055264 8.7900734 88 77 99
3.5804639 3.2012248 8.9944935 92 83 111
1.5197452 3.3796902 8.9944935 161 155 206
2.088604 3.3908443 8.9944935 109 101 124
2.1769075 3.38062 8.9944935 142 129 160
2.2196646 3.3964214 8.9944935 93 82 104
2.3349235 3.3945625 8.9944935 91 83 108
2.942003 3.3745601 8.9944916 153 141 175
3.011605 3.351805 8.9944935 161 152 193
3.1804378 3.3665082 8.9944925 93 85 114
3.2170267 3.3620298 8.9944925 111 104 136
3.3643532 3.3922386 8.9944925 100 88 114
3.4410377 3.3722541 8.9944935 106 101 133
3.5930123 3.3755074 8.9944935 88 83 110
3.6228206 3.3613021 8.9944954 166 164 190
3.7601237 3.3390586 8.9944925 163 158 184
3.8382475 3.3260891 8.9944925 120 117 151
3.9507315 3.3416219 8.9944973 134 131 163
4.0071087 3.3127656 8.9944935 75 73 99
4.1660538 3.3133233 8.9944925 79 75 107
4.2297916 3.3366673 8.9944935 225 222 236
0.93694389 3.4243066 8.9944935 66 57 70
1.3705591 3.4250038 8.9944925 65 57 76
1.5690092 3.4150114 8.9944935 68 61 77
1.6470878 3.4224477 8.9944935 68 58 75
2.0895336 3.4057167 8.9944935 80 72 93
2.1787663 3.4075756 8.9944935 79 68 90
2.2284286 3.4059823 8.9944935 82 72 93
2.3367825 3.4038577 8.9944935 80 72 93
2.942822 3.4075756 8.9944935 83 76 100
3.2212095 3.40804 8.9944925 91 82 108
3.5916183 3.4019985 8.9944935 94 85 113
3.6157854 3.4019985 8.9944935 97 87 115
3.2386706 3.680851 8.9944935 207 199 210
3.3191392 3.6752741 8.9944935 196 189 210
3.6641197 3.6696968 8.9944935 240 232 253
3.7638872 3.6517262 8.9944925 159 152 185
3.8748531 3.6812496 8.9944925 250 248 253
3.9177709 3.671555 8.9944925 206 204 222
4.0684557 3.6920049 8.9944935 239 236 252
5.6506639 3.6931202 8.9944935 236 216 251
0.596744 3.7868147 8.9944935 71 63 84
0.61998165 3.7835608 8.9944925 85 78 101
0.78078663 3.7690213 8.9944925 120 113 147
0.82746392 3.7820857 8.9944973 81 73 97
1.0580456 3.7764575 8.9944935 90 81 106
1.1767569 3.7617178 8.9944935 114 111 143
1.2649755 3.7878284 8.9944925 69 64 82
1.3598698 3.7857814 8.9944992 70 63 83
1.4538232 3.7766905 8.994503 81 75 98
1.514168 3.7680912 8.9944925 96 91 115
1.6676581 3.7757814 8.9944973 87 78 101
1.7210996 3.7762413 8.9944983 90 79 104
1.949178 3.7617185 8.9944925 121 111 143
2.0401053 3.7836435 8.9944992 80 73 95
2.1532743 3.7845225 8.9945011 79 72 93
2.2246032 3.7624354 8.994503 128 119 145
2.3581612 3.744211 8.9944954 164 157 191
2.4503732 3.7690344 8.994503 110 103 127
2.5699244 3.7663987 8.9944992 101 92 117
2.6548433 3.7765045 8.9944944 102 94 115
2.7498515 3.7571523 8.9945021 132 123 145
2.8498704 3.772871 8.9944963 93 83 108
2.9228797 3.7770128 8.9945002 94 87 109
3.0093744 3.7723145 8.9944935 88 76 98
3.1610422 3.7492535 8.9945011 150 145 166
3.236207 3.7696612 8.9945002 104 94 119
3.3390889 3.7641363 8.9945011 95 86 111
3.4599993 3.7741525 8.9945021 86 78 105
3.5550256 3.7710516 8.9945021 90 81 106
3.6500607 3.7660186 8.994503 92 81 108
3.7457247 3.7647512 8.9945002 92 80 107
3.8551607 3.7570701 8.9944992 91 81 107
3.9534359 3.7453778 8.9945021 116 107 135
4.0516071 3.745224 8.9945021 108 99 128
4.1490774 3.7537816 8.9945021 94 85 110
4.2631197 3.7560749 8.9945021 95 84 109
4.3454585 3.7530375 8.9945021 96 85 111
4.4435344 3.7537165 8.9944992 95 85 109
4.5554276 3.7591453 8.994503 94 83 108
4.6356068 3.7657647 8.9944925 95 84 109
4.7586136 3.7606711 8.9944935 95 84 107
4.8133397 3.7896035 8.9944925 89 80 102
4.960783 3.7784491 8.9944935 98 87 109
5.5559773 3.7149327 8.9944925 174 166 202
5.6487517 3.7234757 8.9944925 130 116 147
5.7292204 3.7334349 8.9944925 115 101 128
5.9479198 3.7310441 8.9944935 95 86 116
6.5404816 3.7324383 8.9944935 78 71 99
0.6971308 3.8899899 8.9944935 54 47 64
0.83655703 3.803546 8.9944935 59 52 69
1.2610469 3.8405571 8.9944973 62 55 71
1.3496454 3.81306 8.9944925 64 57 73
1.4495252 3.8286421 8.9944925 61 55 72
1.6859841 3.8305736 8.9944925 68 60 77
1.7121533 3.8035462 8.9944935 69 60 76
1.9193007 3.8449752 8.9944935 71 63 84
2.1664295 3.8086166 8.9944925 74 69 87
2.4497781 3.8062131 8.9944925 78 71 91
2.5561466 3.8054051 8.9944935 78 70 91
2.6623428 3.8070319 8.9944925 76 70 90
2.7327528 3.8983555 8.9944935 82 77 95
2.8275628 3.8072643 8.9944935 85 78 100
2.9255583 3.816293 8.9944973 87 78 99
3.1770577 3.8078837 8.9944925 87 79 102
3.2268791 3.808008 8.9944935 91 78 104
3.4648671 3.8081093 8.9944925 88 80 105
3.5581558 3.803546 8.9944935 90 79 105
4.3724046 3.8760474 8.9944935 94 83 107
4.6554394 3.8160944 8.9944925 91 80 105
4.8910699 3.803546 8.9944935 95 85 105
1.0354718 3.9615619 8.9944935 60 53 68
1.3422092 3.9634213 8.9944935 70 63 80
2.3981299 3.9401834 8.9944935 76 69 88
2.4594774 3.9178753 8.9944935 79 69 89
2.6992908 3.9206638 8.9944935 70 64 84
2.716819 3.9154849 8.9944925 75 68 88
3.1900706 3.9346063 8.9944935 88 80 101
3.8816245 3.9262409 8.9944935 88 80 103
2.7578495 3.3973508 9.2086477 65 68 85
3.2374754 3.3973508 9.2086477 65 71 94
3.323123 3.3973508 9.2086477 84 71 100
3.6828427 3.3921165 9.2086487 72 73 98
3.7392268 3.3902135 9.2086477 74 73 101
3.8118846 3.3904989 9.2086477 78 72 102
3.9683342 3.3816488 9.2086477 87 83 112
4.0968056 3.3802214 9.2086477 86 80 108
4.1099381 3.3870733 9.2086477 75 73 99
4.2830095 3.3878343 9.2086477 80 76 105
1.3989091 3.4801433 9.2086477 108 99 131
1.405761 3.4841404 9.2086477 97 89 116
1.5536273 3.4680793 9.2086477 135 128 170
1.6380085 3.4865668 9.2086477 79 67 89
2.1457555 3.4795723 9.2086477 88 80 103
2.2391562 3.4733818 9.2086477 93 83 107
2.3924201 3.4772885 9.2086477 90 82 106
2.4047918 3.4849014 9.2086487 83 76 97
2.9976628 3.4438453 9.2086477 172 162 202
3.0109859 3.4430294 9.2086477 98 89 126
3.2428851 3.4541488 9.2086468 142 134 163
3.344059 3.4563522 9.2086477 92 87 115
3.4563522 3.4696755 9.2086477 108 93 124
3.5523322 3.4479239 9.2086477 184 177 207
3.6542935 3.4479239 9.2086477 88 80 108
3.7269642 3.4321289 9.2086487 211 208 229
3.8196819 3.4408643 9.2086477 155 146 173
3.9226553 3.4087703 9.2086477 101 100 144
4.082531 3.4201901 9.2086477 183 184 218
4.3444695 3.4166214 9.2086477 223 220 233
0.96781671 3.5058377 9.2086477 66 57 70
1.404619 3.5058377 9.2086477 65 57 78
1.5930434 3.5001276 9.2086477 70 63 82
1.6901107 3.5001276 9.2086477 71 60 78
4.7848401 3.6999719 9.2086477 98 90 111
5.0532026 3.6485834 9.2086477 94 83 105
0.59953249 3.7228112 9.2086477 53 46 61
0.61023837 3.7292347 9.2086477 50 43 58
1.4160386 3.7970393 9.2086477 198 191 244
2.3136244 3.7918999 9.2086477 242 239 253
2.5503924 3.7945015 9.2086477 239 230 251
2.7821164 3.7937083 9.2086487 239 232 251
2.8245645 3.7898266 9.2086477 240 234 254
2.9572859 3.770937 9.2086477 203 196 208
3.0358934 3.7799098 9.2086477 241 237 250
3.1441195 3.7944703 9.2086477 245 239 251
3.2572694 3.7844777 9.2086477 251 249 253
3.3506339 3.7887342 9.2086487 242 240 248
3.4548059 3.7752709 9.2086477 238 231 244
3.5614464 3.7761858 9.2086477 228 220 244
3.6542938 3.789124 9.2086487 244 239 253
3.7502186 3.7616384 9.2086477 246 241 255
3.8528399 3.7425361 9.2086487 178 174 200
3.9388332 3.7780063 9.2086487 249 247 253
4.0726428 3.7881265 9.2086477 240 236 251
4.1372623 3.7861774 9.2086477 236 232 248
4.2138567 3.7799096 9.2086477 247 243 255
4.5069618 3.7475543 9.2086477 241 238 250
4.6917109 3.7728221 9.2086477 233 223 242
4.730721 3.7516088 9.2086477 208 200 216
5.5601096 3.7900603 9.2086477 234 235 251
5.6777711 3.7891331 9.2086487 220 218 249
5.7600794 3.7895021 9.2086477 242 222 248
5.8011909 3.7884743 9.2086477 233 212 245
6.0572553 3.7829847 9.2086487 208 192 248
6.5263395 3.7970393 9.2086477 188 173 221
0.4563584 3.8641293 9.2086477 108 101 131
0.53489298 3.8392704 9.2086487 138 131 170
0.65069449 3.8669608 9.2086325 104 97 127
0.75471395 3.8501797 9.2086287 128 123 160
0.85400563 3.8519745 9.2086334 129 122 159
0.95225626 3.84113 9.2086296 150 144 186
1.0469385 3.8545001 9.2086325 126 119 155
1.1694282 3.84444 9.2086449 139 133 170
1.2462333 3.853996 9.2086287 116 111 143
1.342584 3.8494976 9.2086315 131 125 162
1.4476054 3.8358033 9.2086315 159 155 202
1.5578151 3.8346705 9.2086287 142 138 176
1.6666538 3.8430264 9.2086334 135 131 165
1.7391659 3.8359637 9.2086363 150 143 185
1.8043072 3.8598473 9.2086477 77 70 89
1.9599462 3.837007 9.2086477 157 145 185
2.0581753 3.8620436 9.2086487 85 77 102
2.2801268 3.8370078 9.2086477 176 163 193
2.3228772 3.8291013 9.2086477 184 175 206
2.4552944 3.8272674 9.2086382 174 167 203
2.5175607 3.8352633 9.2086477 153 147 176
2.6347311 3.8248749 9.2086487 194 182 205
2.7720098 3.8109708 9.2086477 237 231 250
2.8508055 3.8182797 9.2086477 208 194 219
2.9297154 3.8227332 9.2086477 197 189 207
3.0090823 3.8655574 9.2086477 93 85 108
3.1588068 3.8120537 9.2086477 223 220 237
3.2235179 3.8357391 9.2086477 156 150 174
3.3630919 3.8133533 9.2086477 226 226 233
3.4715786 3.8575635 9.2086477 90 79 105
3.568646 3.8484278 9.2086477 91 80 106
3.6493447 3.8206398 9.2086477 211 195 212
3.7418439 3.8503311 9.2086477 91 80 107
3.8122654 3.8503311 9.2086477 88 76 105
4.0763702 3.8111629 9.2086477 142 138 176
4.1459737 3.8151844 9.2086487 132 120 156
4.2123346 3.815311 9.2086477 119 107 138
4.4317822 3.8341529 9.2086487 95 84 109
4.5775013 3.8223763 9.2086477 106 95 123
4.6649337 3.866699 9.2086477 93 82 106
4.7677112 3.8712673 9.2086477 99 88 111
4.8767681 3.8461437 9.2086477 96 85 107
4.9083157 3.8734083 9.2086477 93 86 107
5.5708942 3.8027492 9.2086487 187 176 217
5.6413155 3.8084588 9.2086477 146 136 174
5.756505 3.8049839 9.2086477 172 151 183
5.8639994 3.8141687 9.2086487 129 110 142
5.9039679 3.8027489 9.2086477 202 169 205
6.0759768 3.8188078 9.2086477 101 93 120
6.1289349 3.806746 9.2086477 138 126 161
6.6792364 3.8192439 9.2086477 86 78 102
1.2585676 3.9415877 9.2086477 63 56 73
1.3261087 3.9112356 9.2086477 64 57 73
1.4502977 3.9854636 9.2086477 67 62 78
1.6387221 3.9397848 9.2086477 70 61 74
1.9603761 3.9264619 9.2086477 71 65 84
2.7863986 3.9968832 9.2086477 78 71 90
4.699193 3.9055257 9.2086477 92 81 105
4.7049026 3.9112358 9.2086477 91 80 104
2.7835436 4.0083027 9.2086477 75 67 87
3.3983257 3.4802132 9.4332495 83 71 103
3.4100239 3.488987 9.4332495 74 69 100
3.5484529 3.4860625 9.4332495 87 79 108
3.7651944 3.4805381 9.4332476 74 72 100
3.813977 3.4842346 9.4332485 82 80 108
3.9328437 3.4838128 9.4332504 90 86 120
4.0627298 3.4717052 9.4332476 82 78 108
4.1316566 3.4794822 9.4332485 85 86 117
4.2171998 3.4714394 9.4332495 77 75 102
4.3757753 3.4633162 9.4332495 82 77 105
4.4371257 3.4843075 9.4332495 131 123 151
1.0820831 3.5884213 9.4332495 67 59 75
1.4330291 3.5854969 9.4332495 69 62 79
1.569508 3.5426035 9.4332504 151 151 200
2.1837778 3.5737991 9.4332485 79 72 92
2.2056949 3.5562515 9.4332495 115 108 139
2.313736 3.5717099 9.4332495 83 72 94
2.470269 3.5689247 9.4332504 85 77 99
2.9216242 3.5328553 9.4332495 175 174 222
3.068527 3.5486026 9.4332504 134 124 158
3.1767912 3.5288336 9.4332485 207 199 236
3.3534827 3.5530019 9.4332476 115 100 131
3.4344769 3.5364292 9.4332466 160 154 185
3.5509872 3.5416286 9.4332495 167 157 184
3.6372147 3.535934 9.4332495 154 148 180
3.7048187 3.5539119 9.4332495 96 85 113
3.8914304 3.5348892 9.4332466 163 154 177
3.9255805 3.5272846 9.4332476 186 176 200
4.1602678 3.5285661 9.4332495 157 148 180
4.4557128 3.5107586 9.4332495 246 240 249
0.62585342 3.6088934 9.4332495 58 51 68
0.80717552 3.6147423 9.4332495 61 51 67
3.0649273 3.7960644 9.4332495 86 76 96
3.6907806 3.7960644 9.4332495 87 82 110
3.927669 3.7960644 9.4332495 94 83 109
4.1031423 3.7960644 9.4332495 95 83 109
4.7962604 3.7960644 9.4332495 96 83 114
4.8021092 3.7960644 9.4332495 100 87 118
4.9132423 3.7960644 9.4332495 92 84 107
5.182301 3.7492716 9.4332495 96 85 107
5.4325123 3.7781923 9.4332476 100 90 111
0.53716475 3.8847535 9.4332504 116 112 141
0.63267744 3.8131247 9.4332504 51 44 59
0.77349877 3.874583 9.4332485 114 109 140
0.82530767 3.8756123 9.4332495 119 116 146
0.95535266 3.895499 9.4332495 174 172 223
1.033828 3.8954988 9.4332495 161 161 206
1.1506771 3.8784835 9.4332504 130 128 167
1.238254 3.8943288 9.4332495 169 167 216
1.3473395 3.8914051 9.4332476 175 174 226
1.4665512 3.8641875 9.433239 132 128 165
1.5313115 3.878305 9.4332485 164 162 208
1.6621088 3.8660805 9.4332409 141 137 175
1.7308697 3.8729136 9.4332409 119 116 145
1.8690753 3.8518367 9.4332466 138 131 167
1.9323679 3.8583448 9.4332399 143 136 173
2.0716739 3.8609164 9.4332428 160 155 198
2.1494632 3.8687229 9.433239 177 171 213
2.2617397 3.876224 9.4332504 214 208 246
2.35498 3.8696713 9.4332399 198 194 228
2.4569759 3.8674483 9.433238 196 192 227
2.5479858 3.8748126 9.4332399 224 218 247
2.6427879 3.8713348 9.4332409 218 213 239
2.7619877 3.870888 9.4332399 214 211 240
2.8346312 3.8732917 9.4332504 237 231 252
2.9662476 3.8701203 9.4332485 233 227 247
3.0447853 3.8455639 9.4332361 173 165 190
3.1476285 3.8565369 9.433239 212 209 230
3.2453129 3.8623929 9.4332409 230 225 245
3.3515315 3.8550467 9.4332399 225 217 238
3.4451902 3.8578353 9.4332438 221 215 238
3.5610683 3.8478115 9.4332438 196 189 218
3.6532528 3.8390052 9.4332361 170 164 193
3.7369053 3.8516321 9.433239 215 209 235
3.864116 3.8530929 9.4332523 226 219 238
3.9499536 3.8523915 9.4332409 224 220 238
4.0309772 3.8574021 9.4332495 249 249 252
4.1404309 3.8489976 9.4332447 218 215 229
4.2586827 3.8701222 9.4332485 241 234 249
4.3162441 3.8760026 9.4332495 231 225 238
4.5973911 3.8399329 9.4332504 222 221 243
4.6090889 3.8407683 9.4332495 232 230 250
4.7940674 3.858942 9.4332495 228 217 233
4.8152699 3.8457818 9.4332495 213 203 220
5.6853228 3.8808765 9.4332495 235 235 248
5.76721 3.8896499 9.4332495 221 212 243
5.8595648 3.8767202 9.4332476 231 219 248
5.9244342 3.8781857 9.4332466 235 217 246
6.0178866 3.8909042 9.4332495 227 201 230
6.1799903 3.887979 9.4332495 202 186 229
6.2297931 3.879566 9.4332504 205 188 237
6.3404222 3.895499 9.4332495 172 160 191
0.46157008 3.9474626 9.4332476 124 119 152
0.53381616 3.9254334 9.4332476 151 146 188
0.64985919 3.9252319 9.4332514 155 151 194
0.73568648 3.9282537 9.4332504 153 149 194
0.84005153 3.910022 9.4332466 173 171 222
0.9422617 3.9223771 9.4332504 167 165 213
1.0631433 3.914254 9.4332495 174 174 223
1.1412759 3.9171407 9.4332514 172 168 217
1.2752025 3.9460595 9.4332504 128 122 157
1.3274795 3.9154401 9.4332504 184 181 233
1.4447269 3.9268498 9.4332466 173 172 221
1.530514 3.9055722 9.4332476 188 187 240
1.6549921 3.9321063 9.4332504 121 116 146
1.7535596 3.9032984 9.4332495 184 187 236
1.8228542 3.920788 9.4332485 164 152 200
1.9436394 3.9103606 9.4332495 194 195 248
2.0153391 3.9065475 9.4332495 187 188 239
2.1677749 3.9300945 9.4332418 159 152 187
2.2827618 3.9294848 9.4332504 169 161 189
2.353646 3.91166 9.4332495 222 214 242
2.404954 3.9120717 9.4332504 207 198 236
2.5326593 3.9045656 9.4332476 215 208 250
2.6557107 3.9201097 9.4332523 183 172 201
2.7434707 3.9074419 9.4332466 229 225 247
2.9442894 3.9126806 9.4332485 204 195 215
3.0127354 3.922945 9.4332504 173 163 186
3.2676961 3.9032981 9.4332495 251 249 250
4.2707415 3.9067478 9.4332504 118 106 144
4.3290634 3.9071972 9.4332495 112 99 132
4.6968255 3.9042728 9.4332495 125 114 145
4.7026744 3.9013484 9.4332495 138 128 162
4.8461499 3.9373038 9.4332485 99 89 114
4.9784184 3.9331007 9.4332495 95 84 108
5.024375 3.9569147 9.4332495 106 93 116
5.9499946 3.9086597 9.4332495 120 101 131
6.026196 3.9081726 9.4332476 119 102 133
6.192245 3.9032981 9.4332495 123 110 147
6.2180991 3.9074526 9.4332466 110 98 131
6.3491955 3.9013484 9.4332495 131 119 150
6.6845436 3.9023235 9.4332504 110 101 137
6.8317461 3.9101219 9.4332495 91 82 105
6.9721241 3.9145088 9.4332495 77 66 90
0.66094804 4.0812082 9.4332495 53 46 63
1.1113286 4.0738969 9.4332495 60 53 68
1.277874 4.0149436 9.4332476 64 57 74
1.3394434 4.0046825 9.4332495 63 56 73
1.4439961 4.0548868 9.4332495 62 54 71
1.672842 4.0358772 9.4332495 70 61 74
1.8951076 4.0826702 9.4332495 72 65 82
4.5572834 4.0141525 9.4332495 95 84 110
4.8391538 4.0066323 9.4332495 94 83 108
3.0636113 3.5672185 9.6690807 71 72 86
3.2764454 3.5971951 9.6690807 119 112 154
3.3900235 3.5878689 9.6690817 95 92 126
3.5672185 3.5672185 9.6690807 80 75 103
3.6199777 3.5684178 9.6690817 84 78 106
3.7396998 3.5769036 9.6690826 90 91 123
3.8849709 3.5792093 9.6690807 81 79 110
3.9805434 3.574625 9.6690817 121 116 146
4.1607556 3.5402396 9.6690807 94 87 114
4.2950511 3.558825 9.6690817 111 110 140
4.3286247 3.5582256 9.6690807 78 76 105
4.4904985 3.5582256 9.6690807 78 73 104
4.5684376 3.5792093 9.6690807 195 186 217
0.82135957 3.6991158 9.6690807 63 53 71
1.0224755 3.6751347 9.6690826 69 62 76
1.1151304 3.6751344 9.6690807 69 59 77
1.4538664 3.654151 9.6690817 102 93 125
1.5899603 3.6403615 9.6690817 146 142 190
1.6447176 3.6531515 9.6690807 100 93 121
2.5390205 3.6541507 9.6690817 88 80 103
2.9826744 3.6114342 9.6690817 160 159 205
3.005157 3.6151814 9.6690817 174 171 216
3.2655921 3.6269653 9.6690807 176 165 199
3.3765666 3.6401618 9.6690807 143 134 158
3.4413166 3.6571484 9.6690807 97 85 114
3.5352435 3.6358321 9.6690817 141 134 167
3.6841273 3.6196775 9.6690807 187 179 210
3.7475071 3.6355219 9.6690817 122 112 143
3.9788978 3.6191783 9.6690826 187 178 199
4.2716694 3.615181 9.6690807 164 161 202
6.7567315 3.6391623 9.6690807 85 78 108
0.78239 3.8969615 9.6690807 53 46 61
0.80337363 3.8969615 9.6690807 54 47 62
1.7206583 3.8969615 9.6690807 63 56 73
1.9105104 3.8709819 9.6690807 73 63 83
2.2182703 3.8969615 9.6690807 72 65 82
2.4760692 3.8969615 9.6690807 81 71 91
2.545615 3.8969617 9.6690817 79 72 91
2.9526975 3.8969617 9.6690817 82 74 95
3.0096536 3.8969615 9.6690807 82 74 97
3.2532134 3.8969615 9.6690817 86 78 101
3.3431828 3.8922288 9.6690817 84 76 101
3.4640992 3.8969617 9.6690817 96 84 109
3.556941 3.8952487 9.6690817 87 79 103
3.659755 3.8933127 9.6690817 92 83 107
3.7393703 3.8931074 9.6690817 92 82 106
3.8669848 3.8939638 9.6690817 93 83 110
3.9314346 3.8914657 9.6690826 97 85 114
4.0108728 3.8909662 9.6690807 95 83 112
4.4105616 3.8869693 9.6690807 91 80 105
4.5939178 3.8902166 9.6690817 96 86 110
4.6283908 3.8863814 9.6690817 100 89 115
4.9188313 3.885637 9.6690817 100 88 117
5.0430679 3.8919654 9.6690817 98 85 112
5.2878766 3.8609893 9.6690817 102 86 110
5.3143277 3.8532312 9.6690817 98 84 107
5.4461536 3.8477998 9.6690817 97 85 109
5.5567198 3.8723495 9.6690817 99 88 108
5.6478739 3.8747034 9.6690722 120 109 130
5.7035522 3.8869693 9.6690807 148 131 161
0.46981552 3.992342 9.6690826 124 120 153
0.57426661 3.9881766 9.6690817 113 108 141
0.63128239 3.9776027 9.6690731 111 106 135
0.77448696 3.9457028 9.6690731 80 72 96
0.84728396 3.9576354 9.6690722 99 96 123
0.92328018 3.9649086 9.6690817 99 97 124
1.0737084 3.9852567 9.6690826 158 156 197
1.1875184 3.976011 9.6690817 133 129 166
1.2155977 3.9590945 9.6690798 111 102 135
1.3536115 3.9782307 9.6690731 157 155 199
1.453673 3.9422824 9.6690712 96 91 117
1.5619338 3.9391708 9.6690722 88 83 108
1.6463042 3.9443071 9.6690693 101 97 126
1.7533977 3.9389293 9.6690722 82 75 96
1.8493835 3.9507623 9.6690693 120 117 149
1.9500055 3.952951 9.669075 139 132 170
2.0540867 3.9484427 9.6690722 130 126 161
2.1538806 3.9336536 9.669075 103 95 121
2.2546146 3.9434955 9.6690702 135 129 162
2.3228784 3.9602227 9.6690807 177 173 206
2.4589593 3.9315991 9.6690712 115 108 138
2.5528219 3.9260006 9.6690722 103 98 124
2.6368535 3.9513278 9.6690769 191 184 222
2.7575541 3.9452209 9.6690702 165 159 188
2.8245475 3.9291861 9.6690817 113 105 136
2.9662075 3.9362824 9.6690731 151 142 173
3.0412867 3.9337997 9.6690702 140 131 156
3.1485181 3.9402251 9.6690779 166 159 183
3.265568 3.9196589 9.6690731 104 96 125
3.3530049 3.9303145 9.6690722 132 127 151
3.4521468 3.9216206 9.6690741 111 103 135
3.5300262 3.9264934 9.669075 133 125 152
3.6419768 3.9250433 9.6690712 128 122 155
3.7544363 3.9124944 9.6690826 103 94 122
3.8947132 3.9134488 9.6690817 102 95 124
3.9475164 3.9280727 9.6690779 159 159 190
4.1547604 3.9569147 9.6690807 255 253 254
4.4290466 3.9629099 9.6690807 250 248 252
4.5972152 3.910151 9.6690817 113 108 140
4.610405 3.917063 9.6690817 146 143 172
4.7063303 3.9329333 9.6690817 208 207 228
5.0420685 3.9044557 9.6690807 107 92 121
5.5209455 3.9141982 9.6690817 101 91 124
5.6653466 3.9129491 9.669076 131 123 151
5.7015543 3.9209425 9.6690807 137 136 187
5.8274565 3.9713037 9.6690817 238 234 251
6.2501268 3.9928868 9.6690807 191 166 205
6.3746963 3.9522519 9.6690817 217 204 252
6.5191669 3.9928868 9.6690817 178 164 193
6.8606505 3.9888897 9.6690807 160 150 190
0.47651735 4.0199761 9.6690817 136 132 168
0.50760424 4.0278597 9.6690817 149 144 186
0.62418002 4.0128717 9.6690817 157 152 199
0.73262876 4.024302 9.6690817 165 161 211
0.88131285 4.006876 9.6690807 175 173 222
0.93786865 4.0506425 9.6690807 115 111 143
1.1640924 4.0133715 9.6690826 177 173 224
1.253023 4.0536966 9.6690817 116 107 138
1.3489482 4.007875 9.6690807 185 181 236
1.4628593 4.0296078 9.6690817 160 157 203
1.6900822 4.0648303 9.6690817 68 62 81
1.7116655 4.0194902 9.6690817 118 113 149
1.8855298 4.0108728 9.6690807 197 187 241
1.9556751 4.0192661 9.6690817 169 168 215
2.0583949 4.0088739 9.6690817 183 182 239
2.4580834 4.0153694 9.6690807 206 199 232
2.7818313 4.0108728 9.6690807 225 213 241
3.0459776 4.0436707 9.6690817 141 132 155
3.1055787 4.0528398 9.6690807 90 82 107
3.3453915 4.007875 9.6690807 223 218 241
4.8228111 4.013442 9.6690817 107 95 126
5.0960264 4.0318565 9.6690807 95 84 106
6.0402908 4.0228634 9.6690807 91 78 104
6.9965453 4.0108728 9.6690807 87 79 106
7.1329384 4.0123715 9.6690807 77 67 91
1.3381567 4.122386 9.6690817 62 55 72
1.7236559 4.1067977 9.6690807 70 60 78
2.619957 4.124784 9.6690807 82 72 92
4.668242 4.1124401 9.6690817 96 85 111
4.8966818 4.112793 9.6690807 94 83 107
4.9121699 4.1074638 9.6690817 94 83 107
3.3599441 3.6822567 9.9170074 113 108 144
3.5879714 3.6648345 9.9170055 78 72 104
3.609493 3.6832817 9.9170055 85 85 121
3.7496915 3.6857412 9.9170065 161 162 200
3.8277845 3.6597104 9.9170065 80 80 109
3.9415421 3.6463873 9.9170055 76 72 93
4.0782399 3.6643617 9.9170065 116 112 140
4.1719985 3.6763303 9.9170065 154 154 182
4.4206562 3.6699586 9.9170074 151 153 183
4.6917262 3.674058 9.9170055 213 210 230
0.86086714 3.7878156 9.9170055 62 52 70
1.0607114 3.766294 9.9170055 71 64 79
1.1385205 3.7717333 9.9170065 67 59 75
1.3497168 3.7509215 9.9170055 87 79 104
1.6382831 3.7201767 9.9170065 134 130 170
2.2915466 3.7673192 9.9170055 77 70 89
3.0683765 3.7171018 9.9170065 183 179 225
3.2221029 3.7509217 9.9170055 86 77 104
3.3383927 3.7306664 9.9170027 145 135 166
3.4588413 3.7463098 9.9170055 97 87 107
3.5725989 3.7570705 9.9170055 93 85 110
3.6340892 3.7293997 9.9170055 131 120 154
3.7671332 3.7221332 9.9170074 163 154 183
3.8001137 3.7509215 9.9170055 93 82 106
4.0747714 3.7119775 9.9170055 182 167 195
4.178793 3.7073658 9.9170074 217 200 222
4.3833952 3.7166626 9.9170065 124 109 143
4.4088697 3.7017288 9.9170055 208 207 250
6.938179 3.7345243 9.9170055 83 75 106
1.0868448 3.9768991 9.9170055 56 49 64
1.3281951 3.9886847 9.9170055 56 49 64
1.4148966 3.992579 9.9170065 57 50 64
1.5515285 3.9881539 9.9169989 60 53 69
1.6830832 3.9960051 9.9170065 59 53 65
1.7802737 3.9833562 9.9170065 74 64 81
1.8326036 3.9907362 9.9170036 74 64 82
1.9492493 3.9907343 9.9170055 80 70 90
2.1802778 3.9591107 9.9170065 73 63 80
2.232106 3.9933238 9.9170065 72 63 81
2.5948999 3.9938087 9.9170055 79 72 91
2.6133471 3.9938087 9.9170055 80 72 91
2.845166 3.9938087 9.9170065 82 75 96
3.0868239 3.9968834 9.9170055 82 74 97
3.258997 3.9938087 9.9170055 84 77 96
3.3580656 3.9948337 9.9170065 84 77 102
3.4529288 3.9864774 9.9170065 84 74 99
3.5621457 3.9928873 9.9170065 92 82 108
3.6125679 3.9938087 9.9170065 90 80 106
3.7463098 3.9938087 9.9170055 92 82 106
3.8515894 3.9814243 9.9170027 91 83 109
3.9827926 3.9784369 9.9170074 92 82 109
4.0434408 3.9788754 9.9170065 91 81 108
4.1453781 3.9725702 9.916996 92 82 107
4.2386279 3.9677203 9.9170027 91 82 108
4.3549161 3.9734769 9.916996 93 83 107
4.4410362 3.9721708 9.9169998 96 86 110
4.5471396 3.980432 9.9170027 94 83 106
4.6638813 3.9760017 9.9169989 96 88 112
4.7520018 3.9672012 9.916997 97 87 112
4.8219414 3.9820535 9.9170065 98 89 113
4.9304843 3.9707072 9.9170027 98 89 111
5.040061 3.9737842 9.9170027 100 88 115
5.1489177 3.9734523 9.9170027 97 85 110
5.3953538 3.9555974 9.9170065 95 87 107
5.4467058 3.9551942 9.9169989 98 86 109
5.572577 3.9626791 9.9170065 95 84 106
5.6442571 3.9707155 9.9170008 93 82 101
5.7333765 3.9706473 9.9170065 100 87 108
5.851994 3.9670186 9.9170008 109 89 113
0.48665348 4.086484 9.9170065 123 118 151
0.51583707 4.0829697 9.9170065 115 111 144
0.63522363 4.0532942 9.9170065 87 80 103
0.74031717 4.0590897 9.9170008 84 77 104
0.84856904 4.0586295 9.9170074 86 81 104
0.9408049 4.0751133 9.9170027 123 122 160
1.2332692 4.0745149 9.9170036 138 132 171
1.3886608 4.047101 9.9170065 86 81 104
1.4454222 4.044816 9.916997 101 96 124
1.5443164 4.0202131 9.9170027 81 75 97
1.6543316 4.009654 9.9170065 57 51 65
1.7666224 4.0227098 9.9170065 78 69 88
1.8404379 4.0059748 9.9170065 72 62 79
1.9749311 4.072299 9.9170027 170 162 207
2.0150445 4.0294738 9.9170065 88 82 105
2.1722922 4.0717897 9.9170074 173 169 214
2.2269111 4.045548 9.9169989 133 127 159
2.379683 4.0903487 9.9170065 230 225 253
2.4119654 4.0875816 9.9170055 225 220 251
2.5810642 4.009182 9.9170055 78 73 91
2.6010489 4.0214796 9.9170055 84 77 96
2.8536325 4.011548 9.9170065 85 78 101
2.9945879 4.018405 9.9170055 88 78 106
3.0426269 4.0443454 9.9170036 163 156 182
3.1114199 4.0091815 9.9170055 86 78 101
3.2692456 4.0255795 9.9170065 123 115 146
3.3453641 4.0382495 9.9170074 168 162 186
3.4592807 4.0249934 9.9170065 134 126 143
3.5524437 4.0262623 9.9170065 132 125 149
3.6052363 4.0470219 9.9170065 198 193 215
3.7048035 4.0030327 9.9170055 89 83 105
4.2551436 4.0645227 9.9170055 253 252 254
4.3409162 4.026052 9.9170017 167 161 187
4.5349255 4.0030327 9.9170055 92 84 110
4.8196259 4.0239396 9.9170065 168 164 188
4.9407625 4.0921936 9.9170055 199 191 220
5.1816015 4.0071321 9.9170055 109 93 125
5.5956364 4.009182 9.9170055 100 87 119
5.665473 4.0122566 9.9170065 100 88 119
5.8616648 4.0104761 9.9170065 107 96 121
5.9676542 4.0552993 9.9170055 253 239 254
6.4134603 4.089119 9.9170055 218 198 241
0.48167571 4.1055164 9.9170055 132 129 165
0.51447064 4.1126909 9.9170065 134 128 163
0.67229629 4.1116657 9.9170055 157 154 198
0.73429912 4.1180716 9.9170074 161 157 204
0.94349498 4.106029 9.9170065 174 173 223
1.1529472 4.1075664 9.9170055 181 179 230
1.2421083 4.1014171 9.9170055 180 176 223
1.5056392 4.1145945 9.9170065 194 193 248
1.737722 4.1788955 9.9170065 70 63 83
1.9543736 4.1280632 9.9170065 145 142 184
2.0446935 4.1294899 9.9170065 161 154 200
2.146965 4.1094589 9.9170065 184 184 236
2.2564092 4.1352358 9.9170008 138 128 164
2.3830991 4.127039 9.9170065 177 171 200
2.9453955 4.1936531 9.9170055 77 71 91
3.0964868 4.1137156 9.9170065 214 207 229
3.1307459 4.1550016 9.9170065 125 112 139
3.554152 4.1936531 9.9170055 91 76 102
3.7939646 4.1875043 9.9170055 86 80 104
5.1959486 4.1629081 9.9170055 96 85 107
5.2131667 4.1370821 9.9170065 97 85 110
6.1850681 4.1330409 9.9170065 87 75 100
6.3417215 4.1506095 9.9170055 93 79 105
7.1697941 4.1137152 9.9170055 87 78 105
7.2097626 4.1044917 9.9170055 102 90 117
7.3101974 4.1137156 9.9170065 80 70 94
7.4362526 4.1096163 9.9170055 91 75 106
3.0560787 4.2121 9.9170055 80 72 95
3.258997 4.2090254 9.9170055 84 73 97
6.3816905 4.2110758 9.9170065 87 75 99
2.3862972 3.7967763 10.177979 99 94 124
3.1270351 3.7991428 10.177979 184 190 240
3.4162836 3.7886248 10.17798 138 129 170
3.5557239 3.7775059 10.17798 119 116 147
3.7802103 3.7533894 10.177979 80 75 103
3.8458436 3.7713754 10.177979 119 118 152
3.941998 3.7578354 10.177979 77 73 102
4.1700816 3.7612774 10.177979 108 103 131
4.3872013 3.7302976 10.177979 91 84 112
4.4049859 3.7297235 10.177979 93 86 113
4.5469809 3.7671378 10.17798 146 148 177
4.8215036 3.7802105 10.177979 234 230 242
0.87721074 3.893806 10.177979 62 52 70
1.0959876 3.8685625 10.17798 69 61 75
1.1616505 3.8694637 10.17798 68 60 78
1.5146085 3.8433189 10.177979 124 113 157
1.6597584 3.8433189 10.177979 113 99 136
2.3827472 3.8297763 10.177979 136 128 165
2.4065447 3.8580444 10.17798 76 68 90
2.6316321 3.837008 10.177979 99 91 116
3.128613 3.8133421 10.177979 192 191 245
3.5403974 3.837008 10.177979 99 89 107
3.7360342 3.837008 10.177979 95 84 108
3.8433189 3.8054538 10.177979 234 230 253
4.1777949 3.8054538 10.177979 228 218 230
4.4975462 3.8285937 10.17798 101 89 115
4.5127969 3.8186014 10.177979 115 104 135
5.1338911 3.8811843 10.177979 104 92 114
7.11866 3.8338528 10.177979 82 74 104
0.87721074 3.9001167 10.177979 61 51 67
4.834125 3.9947798 10.177979 107 92 119
5.2342348 3.9935176 10.177979 103 91 117
5.5907989 3.9884689 10.177979 96 84 106
5.6040516 3.9853134 10.177979 101 89 111
1.1296455 4.0705104 10.177979 60 53 70
1.4623187 4.0894427 10.17798 60 53 68
1.5622268 4.0716581 10.177979 65 58 77
1.6162467 4.0774851 10.177979 63 56 73
1.7859758 4.0705104 10.177979 71 65 76
1.8558809 4.0734229 10.17798 73 63 82
1.9185041 4.0768209 10.177979 76 66 86
2.0348046 4.0858369 10.17798 74 67 86
2.2484722 4.0614948 10.17798 74 64 82
2.6810672 4.0936503 10.177979 80 72 92
2.8775754 4.0699692 10.177979 84 75 95
2.9052947 4.0762472 10.177979 88 79 100
3.3479161 4.0515776 10.177979 88 77 102
3.5698478 4.0910206 10.177979 86 75 102
3.6056097 4.0936499 10.17798 91 79 108
3.8496296 4.0925984 10.177979 92 81 105
4.0888114 4.051578 10.177979 92 81 108
4.1246967 4.0441785 10.177979 92 82 108
4.2473831 4.0440035 10.177979 91 81 106
4.3357444 4.0488219 10.177979 90 80 105
4.4455252 4.0540385 10.177979 95 84 108
4.5581846 4.0498395 10.177979 96 87 112
4.6483998 4.0490994 10.177979 94 85 109
4.7537117 4.0542917 10.177979 96 87 111
4.846652 4.0418763 10.177979 99 88 114
4.9546766 4.0585313 10.177979 100 89 115
5.0274072 4.0461149 10.177979 100 90 116
5.1800957 4.0522537 10.17798 100 89 114
5.240521 4.0567012 10.177979 99 88 111
5.3166971 4.0671444 10.17798 95 84 110
5.4520516 4.0595026 10.177979 98 87 110
5.5418534 4.0425344 10.177979 96 85 107
5.6560993 4.0607605 10.177979 95 83 105
5.7514653 4.0692973 10.177979 92 80 101
5.8386517 4.0790172 10.177979 96 82 101
5.9858589 4.0799766 10.177979 122 108 135
6.0284224 4.070931 10.177979 103 87 113
0.53326833 4.1967278 10.177979 112 109 138
0.65422672 4.1209974 10.17798 53 46 61
0.76630312 4.1609659 10.177979 83 77 101
0.84986365 4.1588626 10.17798 60 54 71
0.93968838 4.1711679 10.177979 104 102 133
1.2558628 4.1872616 10.177979 155 149 192
1.4712554 4.1423993 10.177979 85 80 103
1.5366964 4.106009 10.177979 58 51 67
1.6629138 4.1115313 10.177979 57 50 67
1.918504 4.1052198 10.177979 74 64 84
2.0428281 4.1146865 10.177979 89 82 104
2.1330736 4.1083755 10.177979 76 66 86
2.2857966 4.1058512 10.177979 75 65 83
2.3665757 4.1083755 10.177979 72 65 84
2.6631866 4.1083755 10.177979 79 72 91
2.7704711 4.1083755 10.177979 81 70 92
2.8966885 4.1052198 10.177979 82 76 98
2.9353428 4.1067977 10.177979 82 74 96
3.0733926 4.1317258 10.177979 121 113 140
3.1238797 4.1420336 10.177979 139 132 164
3.3662174 4.1124778 10.177979 90 85 107
3.4709778 4.1083755 10.177979 84 77 104
3.5805576 4.1204238 10.177979 119 110 130
3.6274872 4.1077442 10.177979 93 81 105
4.9414101 4.1273079 10.177979 176 167 182
5.0613165 4.1967278 10.177979 223 217 241
5.327951 4.1099529 10.177979 105 87 118
5.7690358 4.1101789 10.17798 85 75 101
5.8280869 4.1127939 10.177979 97 86 113
6.1231198 4.1675396 10.177979 250 238 254
7.3426952 4.1904168 10.177979 178 165 203
0.47331512 4.2314372 10.177979 138 133 173
0.53326833 4.2061939 10.177979 123 119 151
0.63739777 4.221971 10.177979 158 152 198
0.75099343 4.2156606 10.177979 158 153 202
0.96916914 4.2093496 10.17798 172 171 222
1.2842617 4.2061939 10.177979 172 170 217
1.538049 4.2228727 10.17798 192 190 245
1.7596805 4.2840281 10.177979 69 62 79
2.0233617 4.2428455 10.17798 132 127 168
2.1583171 4.2188158 10.177979 182 183 241
2.2632351 4.2148709 10.177979 172 170 215
2.4423063 4.2547879 10.177979 115 103 129
3.1722631 4.2240748 10.17798 173 154 183
5.0834045 4.2240748 10.177979 118 107 137
5.3402572 4.2528944 10.177979 97 86 110
6.3550448 4.2472148 10.177979 85 74 96
7.3721461 4.2156601 10.177979 102 91 117
7.4910011 4.221971 10.17798 80 70 94
7.5141411 4.211453 10.17798 109 94 121
7.6266842 4.2156601 10.177979 99 85 118
7.1392984 3.5550656 10.45306 80 71 99
1.1796207 3.6814539 10.45306 53 48 64
2.4694259 3.8921003 10.45306 75 67 90
3.1110876 3.8694153 10.45306 70 64 88
3.5530791 3.8639786 10.453063 75 73 100
3.6749723 3.8758969 10.45306 69 74 107
3.7922859 3.8642304 10.453061 76 71 95
3.8272858 3.868119 10.453061 80 76 105
3.9328413 3.8746626 10.453063 119 118 154
4.0627785 3.8596933 10.45306 77 73 104
4.2826066 3.867795 10.45306 100 93 133
4.410615 3.8694153 10.45306 92 88 132
4.6774335 3.8629339 10.453062 137 135 161
4.9582958 3.8791378 10.45306 214 209 225
0.68703187 3.9925625 10.45306 60 53 70
0.91712272 3.9925625 10.45306 61 51 69
1.148834 3.9747386 10.45306 66 58 74
1.2249908 3.9860809 10.45306 65 58 73
1.6981353 3.9471924 10.45306 120 106 143
3.3897893 3.9504333 10.45306 88 79 108
3.4999735 3.9277484 10.45306 163 148 171
3.5647879 3.9115448 10.45306 212 211 241
3.6344633 3.9423313 10.45306 106 93 115
3.8345773 3.9455721 10.45306 98 87 112
3.9192944 3.9167581 10.453063 191 183 211
4.2842269 3.908304 10.45306 221 211 223
4.6558294 3.9126248 10.45306 170 167 204
6.6629128 3.940711 10.45306 95 83 109
7.2903152 3.9329336 10.45306 88 80 110
7.3045745 3.9277484 10.45306 97 90 120
4.2334561 4.0962658 10.45306 95 84 110
4.3555231 4.0962648 10.453061 94 83 109
4.4251986 4.094645 10.45306 97 86 112
4.5292253 4.0962653 10.45306 96 85 109
4.6407061 4.0916362 10.45306 96 86 110
4.7467661 4.0956759 10.453061 93 83 108
4.8499637 4.081913 10.453062 98 87 111
4.9621844 4.0900435 10.453062 104 90 116
5.0036659 4.0962653 10.45306 104 92 121
5.2175536 4.0910807 10.45306 105 93 117
5.3860703 4.0962653 10.45306 106 94 119
5.4265785 4.0922141 10.453062 106 94 118
5.5075979 4.0833025 10.45306 105 91 113
5.642087 4.0962653 10.45306 101 89 111
5.7386603 4.0930247 10.453061 99 87 109
0.79721624 4.1805239 10.45306 54 47 62
0.80369765 4.1675615 10.45306 55 48 63
1.153695 4.1740427 10.45306 60 53 70
1.484248 4.1870055 10.45306 63 57 69
1.5604901 4.1810369 10.453063 63 56 74
1.6103414 4.1575441 10.453061 64 57 76
1.8465439 4.1600842 10.453063 67 60 74
1.94443 4.179678 10.453063 73 63 82
2.0781093 4.1934862 10.453062 74 66 85
2.3128743 4.1660652 10.453062 74 64 82
2.972424 4.172276 10.453063 83 73 94
3.0059962 4.186542 10.453062 81 73 94
3.4392836 4.1304407 10.453061 87 75 100
3.6717315 4.1999683 10.45306 90 78 107
4.1947021 4.1238122 10.453062 91 80 106
4.2548804 4.1280141 10.453057 93 83 108
4.3513455 4.1242781 10.453064 92 82 108
4.4526072 4.1262846 10.453064 93 82 109
4.5385413 4.1315842 10.453053 93 83 107
4.6481128 4.1226025 10.453064 94 85 109
4.7371173 4.1175604 10.453063 95 84 109
4.8467612 4.1405573 10.453064 97 87 110
4.9559536 4.1226592 10.453063 104 91 117
5.0515647 4.1280379 10.453063 101 90 116
5.1490355 4.1299067 10.453059 101 89 114
5.2613034 4.1282673 10.453062 103 91 116
5.3552842 4.126699 10.453064 102 90 114
5.4393883 4.1362348 10.453063 103 91 115
5.5807052 4.1301975 10.453063 96 84 108
5.644155 4.1341214 10.453063 97 85 107
5.7549486 4.12501 10.453064 96 85 107
5.8382745 4.1790276 10.453062 90 77 99
5.9162517 4.1947832 10.45306 84 70 90
6.1443982 4.1675615 10.45306 98 84 101
6.2200146 4.1891661 10.45306 97 83 109
0.6805504 4.2420979 10.45306 52 45 60
0.77172273 4.2807703 10.453062 86 81 108
0.82184571 4.2284865 10.45306 54 47 62
0.9583261 4.2795973 10.45306 88 86 109
1.5500596 4.234869 10.453062 82 77 99
1.9638742 4.2129316 10.45306 74 64 81
2.0764153 4.211164 10.453061 76 68 88
2.1561568 4.2194133 10.453061 76 68 87
2.3722045 4.225894 10.45306 76 66 82
2.8777561 4.2583013 10.45306 109 113 152
2.994422 4.20645 10.45306 79 71 92
3.0514586 4.2245979 10.45306 82 74 95
3.1629391 4.2712641 10.45306 211 199 237
3.2093894 4.2366967 10.453062 96 87 115
3.4616251 4.2366967 10.453062 87 82 108
3.6620095 4.2129312 10.45306 90 78 102
3.7041388 4.2226534 10.45306 91 81 105
4.5934849 4.2393203 10.453062 163 154 186
4.6018176 4.2258945 10.45306 119 110 141
5.0629969 4.2323756 10.453063 152 142 167
5.1916275 4.2971897 10.45306 253 251 252
5.480051 4.2129316 10.45306 102 87 112
5.8644004 4.2181168 10.453062 97 85 109
5.9519 4.2245984 10.453061 112 98 127
6.003427 4.2275143 10.45306 84 78 105
6.2675457 4.2777452 10.45306 255 246 255
7.5460081 4.2955694 10.45306 179 168 210
0.46925575 4.3321896 10.45306 141 138 175
0.66758758 4.3536706 10.45306 159 157 203
0.77525133 4.3220358 10.453062 148 140 183
0.97869635 4.3166342 10.45306 160 159 208
1.3330147 4.3328381 10.45306 174 175 219
1.5731366 4.3360782 10.45306 190 189 244
2.0843697 4.3293018 10.453063 181 181 235
2.153816 4.3429208 10.453063 168 163 209
2.2188106 4.3360786 10.45306 189 187 243
2.3337386 4.3401642 10.453064 180 176 225
2.4937313 4.3279762 10.45306 228 225 254
2.501833 4.3447204 10.45306 201 192 221
3.2601607 4.3263559 10.45306 240 230 254
5.1932478 4.3085322 10.45306 225 218 235
5.2153931 4.329597 10.45306 154 143 165
5.4768105 4.3548026 10.453061 101 90 117
5.5128193 4.3353581 10.453061 111 101 130
6.5365248 4.3587637 10.45306 86 75 97
6.6823573 4.3490415 10.45306 91 80 106
7.5692329 4.3133941 10.45306 159 143 174
7.6902194 4.329597 10.45306 99 85 111
7.7244282 4.3223958 10.453061 119 104 131
7.8243861 4.3244119 10.45306 113 98 132
7.3453827 3.6460462 10.743423 80 71 99
2.5446823 3.9968834 10.743423 72 64 87
3.1575379 3.9768989 10.743423 70 66 89
3.4639654 3.973568 10.743423 70 63 90
3.6538177 3.9768989 10.743423 71 71 100
3.7337551 3.9868908 10.743423 103 101 134
3.9669068 3.9602451 10.743423 79 73 99
4.0335207 3.9719024 10.743423 85 79 112
4.1714139 3.9569147 10.743423 71 71 96
4.3849139 3.9694047 10.743423 119 114 143
4.5964155 3.9369302 10.743423 95 88 115
4.6030774 3.9369302 10.743423 95 88 115
4.7962599 3.9369302 10.743423 84 76 111
4.8162441 3.9619102 10.743423 122 119 149
5.1026878 3.9835603 10.743423 208 204 221
1.1740844 4.088479 10.743423 64 56 71
1.7386442 4.0568366 10.743423 109 95 132
1.9751264 4.0651636 10.743423 85 73 96
2.2138295 4.0235295 10.743423 156 154 199
2.5405583 4.0368519 10.743423 129 120 155
2.7178805 4.0701594 10.743423 79 71 92
3.7319782 4.0293031 10.74342 181 172 198
3.9554341 4.0605378 10.743423 98 87 111
4.063498 4.0201988 10.743423 203 199 234
4.1967273 4.0568366 10.743423 93 82 108
4.3965716 4.0102062 10.743423 237 232 244
4.8029218 4.0068755 10.743423 224 224 254
6.8613167 4.0501752 10.743423 96 84 110
7.4824986 4.0468445 10.743423 85 77 105
0.93704718 4.112349 10.743423 60 50 68
3.4900565 4.1884007 10.743423 85 76 98
3.5151753 4.188817 10.743423 86 77 98
4.1615181 4.1792808 10.743423 92 81 107
4.2933187 4.1967273 10.743423 91 80 106
4.3517833 4.1873722 10.743415 94 84 110
4.4486141 4.184237 10.743423 95 84 110
4.5437298 4.1628151 10.743423 94 84 110
4.6630311 4.1900659 10.743423 98 87 112
4.7557983 4.1599655 10.743421 100 89 114
4.8823833 4.187211 10.743423 98 87 113
4.9409752 4.1837492 10.743415 96 85 109
5.0532522 4.1849818 10.743417 103 91 117
5.1501641 4.1832991 10.743415 101 89 115
5.2629132 4.1872611 10.743423 104 92 117
5.3422399 4.1868005 10.743416 107 95 119
5.4411416 4.1864791 10.743416 108 95 120
5.5390892 4.179852 10.743416 106 93 117
5.6722431 4.1967273 10.743423 101 86 109
5.9020638 4.1567588 10.743423 101 86 109
1.5646625 4.2768607 10.743418 61 54 71
1.6250292 4.2640824 10.743423 63 56 75
1.9717957 4.2770567 10.743423 71 61 81
2.0062134 4.2811065 10.743423 74 64 84
3.4897788 4.2075529 10.743423 88 77 99
3.5236969 4.2167125 10.74342 87 77 99
4.3499422 4.207489 10.743422 92 81 107
4.451529 4.2039437 10.743423 95 84 110
4.5098166 4.2056098 10.743423 93 82 108
4.6484733 4.2307758 10.743421 94 84 109
4.7527308 4.2215357 10.743415 93 84 109
4.8308368 4.2151265 10.743423 96 85 108
4.9583983 4.2178431 10.743415 98 87 111
5.040184 4.2208223 10.743415 101 90 116
5.169549 4.2093115 10.743421 104 92 120
